# .PCD v0.7 - Point Cloud Data file format
VERSION 0.7
FIELDS x y z intensity
SIZE 4 4 4 4
TYPE F F F F
COUNT 1 1 1 1
WIDTH 1414
HEIGHT 1
VIEWPOINT 0 0 0 1 0 0 0
POINTS 1414
DATA ascii
-7.5130463 6.1244054 -0.83887351 58
-7.512681 6.1657615 -0.84113955 59
-7.5132098 6.2058697 -0.8434056 64
-7.513556 6.2460442 -0.84567165 62
-7.5076256 6.2811518 -0.84724045 66
-7.5008636 6.3201914 -0.84898359 66
-7.4991727 6.3592277 -0.85107535 63
nan nan nan nan
-6.8726711 5.9024987 -0.78344262 83
nan nan nan nan
-7.0529842 6.1356678 -0.80871773 80
-6.9253311 6.0667934 -0.7963416 75
-6.8197289 6.0119033 -0.78623158 80
-6.7785001 6.013413 -0.7836169 72
-6.7239761 6.0027523 -0.77943343 72
-6.6448822 5.9716082 -0.772461 77
nan nan nan nan
-6.3670115 5.7976508 -0.74422258 99
nan nan nan nan
-6.7849545 6.2587061 -0.79843336 80
-6.6967735 6.2161274 -0.79024076 74
-6.6398072 6.2042098 -0.78588295 81
-6.6724234 6.2742939 -0.79215813 81
-6.7255473 6.3689532 -0.80122232 81
nan nan nan nan
-7.4932427 7.1893086 -0.89935952 56
nan nan nan nan
-6.421411 6.2370472 -0.77402973 99
nan nan nan nan
-7.4579968 7.3456149 -0.90668052 50
nan nan nan nan
nan nan nan nan
-6.1857104 6.2035832 -0.75729597 99
-6.1846871 6.2439246 -0.7597363 99
nan nan nan nan
-7.4489408 7.6217847 -0.92324013 71
nan nan nan nan
-4.0841899 4.2212071 -0.50471914 86
-4.0736599 4.2368999 -0.50506771 99
-4.0554752 4.246047 -0.50454479 99
-4.0407481 4.2573175 -0.50437051 99
-4.0219073 4.264173 -0.50367326 99
-4.0057759 4.2738705 -0.50332463 99
-3.9881289 4.2849011 -0.502976 99
-3.9679096 4.2900715 -0.50210446 99
-3.946949 4.2958455 -0.50123292 99
-3.9240658 4.2978911 -0.50001276 99
-3.9038777 4.3027949 -0.49914119 99
-3.8876829 4.3120694 -0.49879256 99
-3.8686371 4.321146 -0.49826965 99
-3.8510866 4.3287978 -0.49774674 99
-3.8348398 4.3378801 -0.49739811 99
-3.8172641 4.3454013 -0.49687514 99
-3.8002241 4.3550243 -0.49652651 99
-3.7865238 4.3669415 -0.49652651 99
-3.7686691 4.3771024 -0.49617794 99
-3.7484493 4.3813286 -0.49530634 99
-3.7308123 4.3885136 -0.49478337 99
-3.7195683 4.4032655 -0.49513206 99
-3.7036703 4.4140463 -0.49495772 99
-3.6859725 4.4210563 -0.4944348 99
-3.6695349 4.4295359 -0.49408618 99
-3.6492994 4.4333272 -0.49321464 99
-3.6312902 4.4429445 -0.49286601 99
-3.6148145 4.4512272 -0.49251738 99
-3.5975447 4.4600787 -0.49216875 99
-3.5822732 4.4698005 -0.49199447 99
-3.5645077 4.4763422 -0.4914715 99
-3.5479653 4.4843855 -0.49112287 99
-3.5286162 4.4920282 -0.49059996 99
-3.5108275 4.4983654 -0.49007702 99
-3.4958894 4.5099835 -0.49007702 99
-3.4756558 4.5130286 -0.48920548 99
-3.4578445 4.5191665 -0.48868254 99
-3.4436307 4.5300069 -0.48868254 99
-3.4301846 4.5451894 -0.48903114 99
-3.4111323 4.5495486 -0.48833391 99
-3.3897176 4.5506282 -0.48728803 99
-3.3765831 4.5628629 -0.48746237 99
-3.3579123 4.5692043 -0.48693943 99
-3.3376958 4.5716643 -0.48606786 99
-3.3217182 4.5832863 -0.48606786 99
-3.3073037 4.593699 -0.48606786 99
-3.2893956 4.5991921 -0.48554492 99
-3.2749317 4.6095028 -0.48554492 99
-3.2573416 4.6170745 -0.48519632 99
-3.2394094 4.6223764 -0.48467338 99
-3.2260048 4.6341696 -0.48484769 99
-3.2114313 4.6442804 -0.48484769 99
-3.1918347 4.6505227 -0.48432475 99
-3.1749759 4.657227 -0.48397616 99
-3.1581078 4.6638703 -0.4836275 99
-3.1423357 4.672111 -0.48345321 99
-3.1257234 4.6808453 -0.48327887 99
-3.1110032 4.6906414 -0.48327887 99
-3.0956993 4.7031417 -0.48345321 99
-3.0787416 4.7094998 -0.48310459 99
-3.0606933 4.7141237 -0.48258165 99
-3.0490899 4.7287512 -0.48310459 99
-3.032325 4.737154 -0.48293027 99
-3.0099905 4.7348585 -0.48171011 99
-2.9934433 4.745337 -0.48171011 99
-2.9785216 4.7547169 -0.48171011 99
-2.9614761 4.7606606 -0.48136145 99
-2.9454656 4.7682414 -0.48118716 99
-2.9275658 4.7745781 -0.48083854 99
-2.9115226 4.7820463 -0.48066422 99
-2.8964837 4.7911696 -0.48066422 99
-2.8814185 4.8002453 -0.48066422 99
-2.859581 4.8016953 -0.47979265 99
-2.8424652 4.8072181 -0.47944406 99
-2.8313587 4.8230119 -0.48014128 99
-2.8141975 4.8284335 -0.47979265 99
-2.7961895 4.8342819 -0.47944406 99
-2.7809894 4.8430419 -0.47944406 99
-2.7630861 4.8509855 -0.47926971 99
-2.7478337 4.859642 -0.47926971 99
-2.732554 4.8682494 -0.47926971 99
-2.7172451 4.8768106 -0.47926971 99
-2.7010567 4.8857956 -0.47926971 99
-2.6828394 4.8890057 -0.47874677 99
-2.6657584 4.8983402 -0.47874677 99
-2.6531761 4.9119611 -0.47926971 99
-2.6339936 4.9132338 -0.47857249 99
-2.6138997 4.9126716 -0.47770095 99
-2.5966694 4.919548 -0.47752661 99
-2.5821204 4.9294491 -0.47770095 99
-2.5638833 4.9322238 -0.47717801 99
-2.5465629 4.9367051 -0.47682938 99
-2.5329182 4.952673 -0.47752661 99
-2.5164502 4.9588265 -0.47735232 99
-2.4990814 4.963141 -0.47700366 99
-2.4825916 4.969183 -0.47682938 99
-2.4661009 4.9773874 -0.47682938 99
-2.4504526 4.9851103 -0.47682938 99
-2.434767 4.9972229 -0.47717801 99
-2.4190567 5.004847 -0.47717801 99
-2.4016109 5.0088234 -0.47682938 99
-2.3858643 5.0163426 -0.47682938 99
-2.3666861 5.0188117 -0.47630644 99
-2.3492339 5.0226059 -0.47595784 99
-2.3359365 5.0353937 -0.47648072 99
-2.3225846 5.0481462 -0.47700366 99
-2.3049502 5.0562224 -0.47700366 99
-2.289053 5.0634394 -0.47700366 99
-2.2731352 5.0706053 -0.47700366 99
-2.2571929 5.0777221 -0.47700366 99
-2.2403431 5.0851789 -0.47700366 99
-2.2235668 5.090363 -0.47682938 99
-2.2057834 5.098094 -0.47682938 99
-2.1882002 5.1013298 -0.47648072 99
-2.1698461 5.1026702 -0.47595784 99
-2.1553373 5.1131396 -0.47630644 99
-2.1406534 5.1257825 -0.47682938 99
-2.1222727 5.1269517 -0.47630644 99
-2.1061566 5.1335931 -0.47630644 99
-2.0900195 5.1401839 -0.47630644 99
-2.0705891 5.1437473 -0.47595784 99
-2.0558827 5.153933 -0.47630644 99
-2.0373311 5.1570106 -0.47595784 99
-2.018961 5.1578121 -0.4754349 99
-2.0027483 5.1641288 -0.4754349 99
-1.9872206 5.1722579 -0.47560921 99
-1.9684541 5.1772981 -0.4754349 99
-1.9535682 5.1871905 -0.4757835 98
-1.9379529 5.1951718 -0.47595784 99
-1.9209398 5.1993628 -0.4757835 99
-1.9043634 5.2075787 -0.47595784 99
-1.8900087 5.219162 -0.47648072 99
-1.8775936 5.2363424 -0.47752661 99
-1.8631135 5.2478552 -0.47804955 99
-1.8447824 5.2543273 -0.47804955 99
-1.8269733 5.2563281 -0.47770095 99
-1.8104521 5.2620411 -0.47770095 99
-1.7951807 5.2714801 -0.47804955 99
-1.7764335 5.2736235 -0.47770095 99
-1.7611014 5.2829633 -0.47804955 99
-1.7445 5.2947621 -0.47857249 99
-1.7266375 5.2964234 -0.47822389 99
-1.7105927 5.3037205 -0.47839817 96
-1.6933248 5.3071675 -0.47822389 95
-1.6763095 5.3146558 -0.47839817 93
-1.6613618 5.3256087 -0.47892112 93
-1.6446238 5.3308015 -0.47892112 97
-1.6290153 5.3397584 -0.47926971 99
-1.610935 5.3473215 -0.47944406 99
-1.5952518 5.3561788 -0.47979265 99
-1.5791453 5.3671803 -0.4803156 99
-1.5617255 5.3702002 -0.48014128 99
-1.5443047 5.3731627 -0.479967 95
-1.5279548 5.3799062 -0.48014128 95
-1.5091647 5.3852072 -0.48014128 95
-1.4927646 5.3918438 -0.4803156 92
-1.4768534 5.4003544 -0.48066422 93
-1.4593692 5.4030418 -0.48048988 94
-1.4429629 5.4136324 -0.48101282 96
-1.428946 5.4297113 -0.4820587 99
-1.4113883 5.4322433 -0.48188439 99
-1.3928506 5.4308558 -0.48136145 99
-1.374848 5.4395514 -0.48171011 99
-1.3596531 5.4515829 -0.48240733 99
-1.3425208 5.4558272 -0.48240733 99
-1.3272212 5.4677706 -0.48310459 99
-1.3113674 5.4818387 -0.48397616 99
-1.2954882 5.4917536 -0.48449904 99
-1.2786742 5.4977388 -0.48467338 99
-1.2609593 5.4997845 -0.48449904 99
-1.2426147 5.5080433 -0.48484769 99
-1.2261533 5.5158134 -0.48519632 91
-1.2103685 5.5315366 -0.4862422 98
-1.1942233 5.5411587 -0.48676509 99
-1.1776233 5.5487843 -0.48711371 99
-1.160982 5.5563612 -0.48746237 99
-1.1427637 5.5662384 -0.48798531 98
-1.126429 5.5756645 -0.48850819 94
-1.1085269 5.57722 -0.48833391 95
-1.0910012 5.5806751 -0.48833391 95
-1.0724901 5.5842619 -0.48833391 97
-1.056392 5.5954399 -0.48903114 99
-1.0402316 5.6065731 -0.48972842 99
-1.0240116 5.6176591 -0.49042565 99
-1.0047405 5.6231613 -0.49059996 98
-0.98808211 5.6321807 -0.49112287 99
-0.9720363 5.645082 -0.49199447 99
-0.95527214 5.6540041 -0.49251738 99
-0.93778878 5.6650085 -0.49321464 99
-0.92030007 5.6698942 -0.49338892 99
-0.90187246 5.6688199 -0.49304029 99
-0.88405734 5.6716251 -0.49304029 99
-0.86513376 5.6805887 -0.49356321 99
-0.84871745 5.6931372 -0.4944348 99
-0.83110642 5.6977477 -0.49460909 99
-0.81430018 5.7082243 -0.49530634 99
-0.79590029 5.7148423 -0.49565497 99
-0.77898955 5.725215 -0.49635223 99
-0.76001668 5.7358041 -0.49704942 99
-0.74224287 5.74014 -0.49722376 99
-0.72517562 5.7503538 -0.49792102 99
-0.70757973 5.7565603 -0.49826965 99
-0.68871415 5.7608542 -0.49844393 99
-0.67105705 5.7669492 -0.49879256 99
-0.65337127 5.7729897 -0.49914119 99
-0.63628626 5.7849202 -0.50001276 99
-0.61851925 5.790854 -0.50036132 99
-0.60071576 5.7967343 -0.50070995 99
-0.5814383 5.8087111 -0.50158149 99
-0.56374037 5.8164606 -0.50210446 99
-0.54534286 5.8282199 -0.502976 99
-0.52737314 5.8338742 -0.50332463 99
-0.50887799 5.8335171 -0.50315034 99
-0.49070707 5.8370728 -0.50332463 99
-0.47140008 5.8526554 -0.50454479 99
-0.45315611 5.8560948 -0.50471914 99
-0.43574014 5.8714018 -0.5059393 99
-0.41836658 5.8886442 -0.50733376 99
-0.39883801 5.8899994 -0.50733376 99
-0.38069424 5.8971891 -0.50785673 99
-0.36262429 5.9063125 -0.50855392 99
-0.34461239 5.9173698 -0.50942552 99
-0.32446244 5.9284863 -0.51029712 99
-0.30583712 5.9294763 -0.51029712 88
-0.2875661 5.9383688 -0.51099432 91
-0.26915917 5.9452147 -0.51151729 95
-0.24944098 5.946075 -0.51151729 96
-0.23097144 5.9528027 -0.5120402 91
-0.21252322 5.9614639 -0.51273745 92
-0.19396801 5.9680772 -0.51326036 99
-0.17343736 5.9806685 -0.51430625 99
-0.15496039 5.9951272 -0.51552641 99
-0.13635601 6.0075364 -0.51657224 99
-0.11773922 6.0238719 -0.51796675 99
-0.097862571 6.0321984 -0.518664 99
-0.078893423 6.0304837 -0.51848972 99
-0.059946008 6.0307021 -0.51848972 99
-0.041033916 6.0408225 -0.51936126 99
-0.019947145 6.0488987 -0.52005851 99
-0.00090252608 6.060885 -0.52110434 99
0.018204354 6.0708194 -0.52197593 99
0.03729425 6.0727248 -0.52215022 81
0.057533637 6.0805373 -0.52284747 77
0.076730713 6.0863023 -0.52337039 78
0.095970377 6.0920072 -0.52389336 88
0.11537438 6.1036277 -0.52493918 99
0.13698676 6.1151376 -0.52598506 99
0.15660311 6.1286182 -0.52720523 99
0.17649451 6.1480093 -0.52894837 99
0.19587721 6.1494155 -0.52912265 99
0.21627001 6.1487322 -0.52912265 99
0.23608306 6.1599665 -0.53016853 99
0.25579309 6.1671557 -0.53086579 99
0.27526093 6.1683121 -0.53104013 99
0.29771224 6.1852212 -0.53260887 99
0.31757909 6.1922135 -0.53330618 99
0.3372598 6.1951632 -0.53365475 99
0.35744733 6.2060051 -0.53470063 99
0.37853843 6.212739 -0.53539789 99
0.3987239 6.2214589 -0.53626943 99
0.41911119 6.2321 -0.53731531 99
0.44029933 6.2526093 -0.53923273 99
0.46304235 6.2629538 -0.54027861 99
0.48319682 6.2674255 -0.54080153 99
0.50421113 6.2817602 -0.54219598 99
0.52532327 6.2960243 -0.54359055 99
0.54673404 6.3002005 -0.54411346 99
0.56744814 6.3083711 -0.544985 99
0.58841026 6.3184566 -0.54603088 99
0.60885477 6.3225236 -0.54655379 98
0.6319387 6.3302698 -0.54742533 94
0.65245956 6.3341966 -0.54794824 98
0.67322218 6.3400378 -0.5486455 99
0.695813 6.36165 -0.55073726 99
0.71966016 6.3830571 -0.55282903 99
0.74159867 6.3965921 -0.55422348 99
0.76241565 6.4001632 -0.55474639 94
0.78425866 6.4115739 -0.55596656 90
0.80816442 6.4206533 -0.55701244 88
0.82885623 6.4220328 -0.55736107 88
0.850097 6.4272952 -0.55805832 85
0.87220025 6.4384074 -0.55927849 91
0.89663208 6.4571772 -0.56119591 93
0.91863161 6.4661584 -0.56224179 87
0.94011104 6.4711242 -0.56293899 88
0.96043783 6.4681382 -0.56293899 89
0.98423207 6.4726219 -0.5636363 91
1.0070564 6.48524 -0.56503075 88
1.0299727 6.4977789 -0.56642526 91
1.053948 6.5161352 -0.56834269 96
1.0785304 6.5302863 -0.56991148 99
1.1010616 6.5386481 -0.5709573 94
1.1239995 6.5488954 -0.57217753 99
1.1470155 6.559062 -0.5733977 99
1.1713275 6.5628595 -0.57409495 99
1.1948373 6.574821 -0.5754894 79
1.2188089 6.5886559 -0.57705826 66
1.2417488 6.5965357 -0.57810408 74
1.2651402 6.600204 -0.57880133 77
1.2897413 6.6157417 -0.58054447 74
1.3144554 6.6311874 -0.58228755 66
1.3376808 6.6387367 -0.58333343 66
1.3645027 6.6515818 -0.58490223 70
1.3878664 6.658958 -0.58594811 87
1.4096184 6.6584597 -0.58629674 99
1.4352007 6.6754107 -0.5882141 99
1.4637998 6.6997924 -0.59082884 99
1.4857141 6.6990485 -0.59117746 99
1.5080813 6.7001758 -0.59170038 99
1.5345197 6.7186966 -0.59379208 90
1.5592632 6.7293601 -0.59518659 77
1.5827037 6.7341185 -0.59605813 74
1.6104188 6.7459812 -0.59762692 70
1.6349248 6.7544341 -0.59884709 64
1.6604608 6.7666669 -0.60041595 63
1.6856065 6.7768726 -0.6018104 65
1.7110275 6.7828283 -0.60285628 66
1.7368195 6.7947798 -0.60442507 69
1.7622012 6.8047071 -0.60581958 68
1.7902188 6.8241706 -0.60808563 69
1.8207649 6.8428893 -0.61035162 85
1.8480169 6.8582811 -0.61226904 99
1.8743231 6.8697267 -0.6138379 99
1.8991113 6.8753185 -0.61488372 96
1.9262387 6.8843203 -0.61627823 90
1.9549894 6.9031343 -0.61854428 91
1.9827685 6.9180088 -0.6204617 88
2.0106566 6.9327769 -0.62237912 80
2.0399508 6.9429049 -0.62394792 79
2.0651906 6.9479117 -0.6249938 78
2.0910609 6.9547343 -0.62621397 78
2.1187499 6.9671755 -0.62795711 71
2.1489422 6.9829412 -0.63004881 70
2.1744523 6.9875603 -0.63109463 72
2.2030337 7.0015817 -0.63301212 69
2.2341583 7.0230799 -0.63562673 72
2.2629702 7.0285015 -0.6368469 79
2.2881517 7.0308218 -0.6377185 77
2.3165061 7.0425076 -0.63946164 78
2.346858 7.059751 -0.64172769 81
2.377984 7.0787592 -0.64416802 88
2.4047327 7.0844469 -0.64538819 84
2.4314711 7.0858479 -0.64625973 74
2.4609547 7.0988612 -0.64817715 55
2.4918749 7.1155157 -0.6504432 42
2.5222514 7.1301703 -0.65253496 65
2.5579464 7.1513085 -0.65532392 73
2.5899479 7.1694455 -0.65776426 75
2.6193368 7.1799726 -0.65950739 77
2.6488211 7.1903844 -0.66125047 78
2.6775527 7.1946177 -0.6624707 75
2.7107291 7.2141185 -0.66508538 68
2.7412071 7.226037 -0.66700274 69
2.7689164 7.2304006 -0.66822296 76
2.8003011 7.2439423 -0.67031467 80
2.8296065 7.2517972 -0.67188352 82
2.8629942 7.2622437 -0.67380089 82
2.8969195 7.2809515 -0.67641556 79
2.9324858 7.3032122 -0.67937887 75
2.9652045 7.3179431 -0.68164492 71
2.9970462 7.3264909 -0.68338805 72
3.0299919 7.3409553 -0.6856541 75
3.0630581 7.3552847 -0.68792009 65
3.1009109 7.3804846 -0.69123203 61
3.1423092 7.40626 -0.69471824 66
3.1766083 7.4219637 -0.69715858 71
3.2110305 7.4375277 -0.69959891 73
3.2471826 7.4565992 -0.70238793 71
3.2850971 7.4791598 -0.70552558 61
3.3166959 7.4869967 -0.7072686 58
3.351316 7.4977598 -0.70936036 54
3.3880308 7.516222 -0.71214932 56
3.4240618 7.5327177 -0.71476406 56
3.4635684 7.5562968 -0.71807593 58
3.5042241 7.5748644 -0.72103918 65
3.5347764 7.5782471 -0.72243369 68
3.5670893 7.585114 -0.72417682 69
3.6072063 7.6080337 -0.72748876 69
3.6466391 7.6289816 -0.73062634 66
3.6862342 7.649756 -0.73376387 61
3.7299612 7.6750779 -0.73742443 60
3.7716746 7.6990623 -0.74091065 61
3.8126855 7.7210774 -0.74422258 56
3.8503075 7.7357841 -0.74683726 56
3.8889635 7.7454166 -0.74910331 55
3.9250264 7.7562432 -0.75136936 61
3.9639277 7.7722354 -0.75415832 57
4.0011344 7.784523 -0.75659865 44
4.0407429 7.7977123 -0.75921333 44
4.0818944 7.81673 -0.76235092 43
4.1213422 7.8320451 -0.76513994 44
4.1656165 7.8559756 -0.7688005 46
4.2110214 7.8814631 -0.77263528 51
4.256628 7.9067426 -0.77647018 68
4.3052058 7.9303074 -0.78030503 73
4.34834 7.949914 -0.7836169 66
4.3858495 7.958868 -0.78588295 53
4.4292803 7.9781055 -0.78919488 56
4.4820857 8.0102606 -0.79390126 62
4.5239301 8.0256062 -0.79686451 57
4.5659151 8.0407686 -0.79982781 51
4.6040635 8.0488386 -0.80209386 55
4.647121 8.0585718 -0.80470854 71
4.6975284 8.0869493 -0.8090663 72
4.7532101 8.1236753 -0.81429571 45
4.8030758 8.1498442 -0.81847912 46
4.8464155 8.1612444 -0.82126814 47
4.8925581 8.180131 -0.82475436 58
4.9399033 8.2005119 -0.82841486 66
4.9843082 8.2155743 -0.83155251 69
5.03407 8.2389269 -0.83556157 63
5.0829787 8.2603531 -0.83939642 61
5.1339135 8.2780685 -0.84305704 49
5.1895456 8.3091536 -0.8479377 42
5.239038 8.3298635 -0.85177255 41
5.2865801 8.3469782 -0.85525876 47
5.3411088 8.371336 -0.85961652 49
5.3868289 8.3846483 -0.86275417 48
5.44137 8.4111195 -0.86728626 48
5.5026813 8.4473314 -0.87286425 48
5.5544062 8.4682655 -0.87687331 48
5.6019082 8.4823217 -0.88018525 49
5.6569467 8.5008144 -0.88419443 50
5.7147741 8.5292816 -0.88907516 44
5.7683616 8.5508728 -0.89325857 39
5.8277555 8.5804415 -0.89831364 39
5.8945389 8.6169004 -0.90424019 39
5.9533129 8.6442223 -0.90912086 41
6.0157366 8.6761627 -0.91452456 40
6.0784154 8.707798 -0.91992819 38
6.1379056 8.7342405 -0.92480892 41
6.2022405 8.7668886 -0.93038684 40
6.2722268 8.8002739 -0.93631345 37
6.3406076 8.8371029 -0.94241428 38
6.4034276 8.8655291 -0.94764364 37
6.4653182 8.8920326 -0.95269865 39
6.5289903 8.9171009 -0.95775372 37
6.5925274 8.9445906 -0.96298301 36
6.6574879 8.9733715 -0.96838665 37
6.7238894 9.0034237 -0.97396463 38
6.7876983 9.0228252 -0.97867101 34
6.8437395 9.0379391 -0.98268014 33
6.9084187 9.0638676 -0.9879095 33
6.984272 9.1036797 -0.9947077 34
7.0665431 9.1509829 -1.0023774 35
7.1405988 9.186861 -1.0088269 33
7.2104111 9.2132673 -1.0144048 33
7.2800956 9.2421484 -1.0201571 33
7.3500309 9.2706814 -1.0259093 34
7.4115038 9.2879763 -1.0304414 33
7.4719071 9.3034248 -1.0347992 34
7.5500493 9.340251 -1.0415974 34
7.6380754 9.3817244 -1.0492671 34
7.7193928 9.4207811 -1.0564138 34
7.8086505 9.468626 -1.0646064 35
7.902112 9.5205965 -1.0733221 34
7.9784465 9.5477715 -1.0794228 34
7.998126 9.5104761 -1.0780284 40
7.9982996 9.4503756 -1.0740192 43
8.0292416 9.4267178 -1.0741935 44
8.0672998 9.4046707 -1.0748907 48
8.0811501 9.3612099 -1.072799 52
8.1105175 9.3357782 -1.072799 53
8.1200953 9.2877884 -1.0701844 58
8.1070452 9.2144318 -1.0646064 62
8.1478605 9.202322 -1.0661752 63
nan nan nan nan
8.9095554 9.9299335 -1.1580371 33
9.0035715 9.9713011 -1.1662298 32
9.1019688 10.016582 -1.1749454 33
9.1993847 10.059884 -1.1834866 28
nan nan nan nan
11.472955 12.372889 -1.4670908 34
nan nan nan nan
10.967327 11.681103 -1.39266 60
11.082069 11.729039 -1.4025955 57
11.13124 11.707143 -1.4041646 61
11.03004 11.528334 -1.3867333 71
10.839841 11.255216 -1.357972 81
10.705744 11.046787 -1.336706 77
10.694425 10.966095 -1.3309537 80
10.798695 11.00345 -1.3396693 78
10.834236 10.962856 -1.3393208 83
10.694177 10.753823 -1.3177061 93
10.575491 10.568281 -1.2988805 98
10.557673 10.484537 -1.2926054 97
10.55119 10.408953 -1.2875503 99
10.531127 10.324219 -1.2811009 99
10.520636 10.249436 -1.2758714 99
10.466773 10.13331 -1.2654128 99
nan nan nan nan
10.782607 10.307925 -1.2959173 99
10.744734 10.200366 -1.2870274 99
10.77237 10.162468 -1.2865045 99
10.831896 10.154428 -1.2898164 99
10.913372 10.166455 -1.295743 99
11.019924 10.201037 -1.3046328 99
11.079817 10.191953 -1.3079447 99
11.100298 10.143081 -1.306376 99
nan nan nan nan
10.337356 9.3295145 -1.2091103 99
10.467611 9.3872976 -1.2209635 99
10.556934 9.4009666 -1.2275873 52
10.477349 9.271533 -1.2148626 58
10.367092 9.1164274 -1.1986517 58
10.355121 9.0484762 -1.1939453 54
nan nan nan nan
10.828664 9.3418274 -1.2420552 73
10.997433 9.4236383 -1.2579174 77
11.207726 9.5424891 -1.2786604 64
nan nan nan nan
12.096584 10.166856 -1.3733114 24
12.100906 10.105855 -1.3701738 25
nan nan nan nan
11.322556 9.3309393 -1.274477 63
nan nan nan nan
12.098898 9.8420334 -1.3553574 35
nan nan nan nan
11.263183 9.0471907 -1.2547798 60
11.201123 8.9398117 -1.2446698 67
11.161931 8.8482571 -1.2370001 71
11.186538 8.810689 -1.2366514 62
11.244008 8.79879 -1.2399634 72
nan nan nan nan
nan nan nan nan
nan nan nan nan
16.971605 12.917867 -1.8568505 52
nan nan nan nan
18.126869 13.616511 -1.9743361 10
nan nan nan nan
nan nan nan nan
24.343342 17.92112 -2.635498 31
24.56517 17.958939 -2.6531036 38
24.810173 18.018534 -2.6734979 63
nan nan nan nan
25.964697 18.607868 -2.7855799 60
26.245491 18.684368 -2.8094604 66
26.12829 18.477701 -2.7906349 10
25.900602 18.181667 -2.7594333 10
nan nan nan nan
29.481663 20.416777 -3.1282756 22
29.736145 20.454937 -3.1484959 24
30.083328 20.554569 -3.1784773 26
30.317623 20.575109 -3.1964314 29
30.382385 20.472225 -3.1960826 29
30.426672 20.363394 -3.1939909 27
30.470568 20.25449 -3.1918991 20
30.499125 20.135622 -3.1882386 17
30.549217 20.015953 -3.186147 20
30.610273 19.9188 -3.1859725 21
30.650942 19.808483 -3.1837068 17
30.692886 19.699194 -3.1816146 19
30.747906 19.598383 -3.1809175 25
30.794167 19.492113 -3.1793489 21
30.831633 19.380436 -3.1769085 21
30.87376 19.271891 -3.1749909 20
30.907007 19.150524 -3.1718533 19
30.943251 19.038734 -3.1694131 22
30.990999 18.934172 -3.1681929 17
31.040104 18.83053 -3.1671469 16
31.08716 18.725721 -3.1659267 22
31.125309 18.615713 -3.163835 17
31.172964 18.496786 -3.162092 17
31.213745 18.388666 -3.1603489 25
31.261034 18.284491 -3.1593029 20
31.31316 18.183184 -3.1587803 19
31.352867 18.074772 -3.157037 25
31.393923 17.967293 -3.1554682 23
31.442928 17.857197 -3.1544223 27
31.486725 17.751476 -3.1532021 28
31.580601 17.673861 -3.157037 25
31.937372 17.741779 -3.1871929 28
32.628235 17.991169 -3.2506418 28
33.364674 18.2603 -3.318449 31
34.111336 18.514023 -3.3864305 33
34.930824 18.816437 -3.4620814 20
35.557449 19.009727 -3.518384 10
nan nan nan nan
47.724606 25.111601 -4.7089286 10
nan nan nan nan
nan nan nan nan
nan nan nan nan
53.34919 27.218071 -5.2306418 10
53.969582 27.321022 -5.2831097 10
54.547287 27.374468 -5.330348 10
nan nan nan nan
nan nan nan nan
nan nan nan nan
nan nan nan nan
nan nan nan nan
59.347477 28.381453 -5.746254 10
59.81982 28.376642 -5.7833829 10
nan nan nan nan
nan nan nan nan
nan nan nan nan
nan nan nan nan
nan nan nan nan
nan nan nan nan
nan nan nan nan
nan nan nan nan
nan nan nan nan
nan nan nan nan
nan nan nan nan
58.953712 25.253922 -5.6019249 10
58.379803 24.791573 -5.5398698 10
57.630947 24.260447 -5.4614296 10
nan nan nan nan
36.814312 15.234085 -3.4765494 26
nan nan nan nan
nan nan nan nan
33.406315 13.445116 -3.1413491 28
33.324364 13.290728 -3.1296699 29
33.368252 13.180154 -3.1296699 26
33.41507 13.077409 -3.130193 25
33.461559 12.974532 -3.1307158 24
33.49099 12.865071 -3.1296699 19
33.527515 12.758386 -3.1293216 25
33.582352 12.658597 -3.1307158 23
33.6394 12.546167 -3.1319361 24
33.674911 12.439054 -3.1315877 25
33.713829 12.33319 -3.1315877 21
33.761776 12.230592 -3.1324592 15
nan nan nan nan
17.07415 6.0752673 -1.5763838 30
16.964476 5.9731116 -1.5643563 30
16.973749 5.9165058 -1.5634848 22
16.96022 5.8521447 -1.5605215 20
16.991724 5.8033295 -1.5617416 22
17.036304 5.7588239 -1.5641819 17
17.048645 5.7033806 -1.5636592 17
17.070261 5.6510439 -1.5640078 20
17.038685 5.5813231 -1.5594757 13
17.029617 5.5126381 -1.5568609 15
17.109491 5.4790926 -1.5626132 13
17.166523 5.4378982 -1.5662737 23
17.238678 5.4011564 -1.5713288 19
17.187025 5.3258171 -1.5650536 36
17.154123 5.25668 -1.5605215 32
17.316439 5.2434764 -1.5737691 32
17.451206 5.2243433 -1.5845765 32
17.540155 5.1908984 -1.5912004 55
nan nan nan nan
18.219566 5.2668858 -1.6501174 99
18.400829 5.2565093 -1.6651082 99
18.555264 5.230473 -1.6774843 66
18.546642 5.165235 -1.6752181 54
nan nan nan nan
17.24593 4.6879854 -1.5544206 83
nan nan nan nan
13.732274 3.6448147 -1.2338625 99
13.732718 3.5962415 -1.2328167 62
nan nan nan nan
7.6986198 1.9740057 -0.68617696 29
7.7144475 1.9522301 -0.68704855 10
nan nan nan nan
nan nan nan nan
7.7641578 1.8841755 -0.68983752 22
7.7855501 1.8634416 -0.69123203 32
7.7874851 1.8380697 -0.6908834 34
7.7912807 1.8131469 -0.69070911 32
7.8066521 1.7908641 -0.69158059 23
7.8044629 1.7645907 -0.6908834 10
nan nan nan nan
12.117163 2.645736 -1.0759367 98
12.121517 2.606827 -1.0755881 98
12.197891 2.5830672 -1.0816889 92
12.352281 2.5749815 -1.0947622 85
12.387643 2.5417261 -1.0972025 86
12.331965 2.4855893 -1.0914503 86
nan nan nan nan
10.545697 2.0598087 -0.93090975 99
nan nan nan nan
9.1541739 1.7312144 -0.80592871 99
9.1223335 1.695611 -0.80261678 99
9.2259483 1.6830153 -0.81133235 99
9.2468863 1.6567918 -0.81272686 69
nan nan nan nan
8.5225468 1.4734973 -0.74753445 86
8.4897957 1.4404757 -0.74422258 84
8.4903479 1.41315 -0.74387395 83
8.4927778 1.3861554 -0.74369967 79
8.4380465 1.3501705 -0.73847032 87
8.3265257 1.3028237 -0.72818595 94
8.2498026 1.2644871 -0.72103918 90
8.1610937 1.2248976 -0.71284658 92
8.0248899 1.1790537 -0.70047051 99
7.8944025 1.134909 -0.68861735 99
7.8189802 1.0992191 -0.68164492 99
nan nan nan nan
7.6481261 1.0253597 -0.66595691 92
7.7165251 1.0096831 -0.67170918 97
7.5694051 0.96666551 -0.65846151 96
7.4359374 0.9262712 -0.64643407 98
7.3952823 0.8977477 -0.64259917 93
7.354826 0.86691844 -0.63876438 99
7.3119717 0.83871746 -0.63475519 99
7.2848597 0.8125124 -0.63214052 98
7.2735062 0.7881611 -0.63092035 99
7.2937851 0.76712924 -0.6324892 99
nan nan nan nan
7.0387726 0.69513184 -0.60965443 99
7.0151315 0.67062879 -0.60738838 99
6.9735441 0.64468408 -0.60355353 99
6.9080443 0.6169526 -0.59762692 99
6.8464112 0.58996582 -0.592049 99
6.8204265 0.5662331 -0.58960861 99
6.8082652 0.54373705 -0.58838844 99
6.7900701 0.52088106 -0.58664536 99
6.7540841 0.49453026 -0.58333343 99
6.7059054 0.46998015 -0.57897562 99
6.6854777 0.44751358 -0.57705826 99
6.6788955 0.42602724 -0.576361 99
6.6762934 0.40365022 -0.57601237 99
6.6795182 0.3827799 -0.57618672 99
6.6886473 0.36220095 -0.57688391 99
6.6877613 0.3410922 -0.57670957 99
6.6748672 0.31945547 -0.5754894 99
6.6758375 0.29848549 -0.5754894 99
6.6847067 0.2778185 -0.57618672 99
6.6735992 0.25639644 -0.57514083 99
6.6147118 0.23119952 -0.56991148 99
6.545701 0.20842317 -0.56381059 99
6.5104713 0.18694261 -0.560673 99
6.5030594 0.16630858 -0.55997574 99
6.5135102 0.14607029 -0.56084728 99
6.5537796 0.12624787 -0.56433356 99
6.6497703 0.10689438 -0.57270044 99
6.632143 0.085825853 -0.57113165 99
6.5208197 0.063110068 -0.56137025 99
6.4930921 0.042532764 -0.55892986 99
nan nan nan nan
7.1507173 -0.00021657534 -0.61645257 84
5.4445634 -0.007507639 -0.27618569 99
5.4465108 -0.024628913 -0.27629036 99
5.4484034 -0.041762479 -0.27639502 99
5.4562335 -0.058996037 -0.27681372 99
5.4699998 -0.076385856 -0.27754641 99
5.4218092 -0.092566095 -0.27503431 42
5.3456178 -0.10777091 -0.27105674 99
5.2554097 -0.12211733 -0.26634654 99
5.1331992 -0.13582362 -0.25996155 48
5.0369329 -0.14872062 -0.25493726 46
4.9905348 -0.16285256 -0.25252983 44
5.0079603 -0.17924823 -0.25347188 99
5.0692301 -0.19764858 -0.2567167 99
5.1424036 -0.21698971 -0.26058957 99
nan nan nan nan
4.9734006 -0.24048626 -0.25179711 99
4.9565778 -0.2569505 -0.25095975 99
4.9716959 -0.27346557 -0.25179711 99
nan nan nan nan
nan nan nan nan
3.4206767 -0.21394829 -0.17046703 99
3.3681927 -0.22097179 -0.16774556 99
3.3495164 -0.23079212 -0.16680352 99
3.3388193 -0.24053377 -0.16628017 99
3.3579535 -0.25264439 -0.16732688 99
3.436749 -0.26993307 -0.17151375 99
nan nan nan nan
nan nan nan nan
5.0763607 -0.45876372 -0.25797275 99
5.088809 -0.47606874 -0.25870547 99
5.0833144 -0.49165246 -0.25849614 99
5.0837312 -0.50782639 -0.2586008 99
5.1059408 -0.52634996 -0.25985688 99
5.1499224 -0.54742903 -0.26226431 99
5.1639538 -0.56630975 -0.2631017 99
5.1046205 -0.57580251 -0.26006618 99
5.0155344 -0.5813548 -0.25546065 99
4.9046597 -0.58366436 -0.24970368 99
4.8453388 -0.59180045 -0.24666819 99
4.8652439 -0.60984552 -0.2478196 99
nan nan nan nan
3.2939353 -0.4270913 -0.16491942 99
nan nan nan nan
4.8846426 -0.67658395 -0.24928498 99
4.7540336 -0.67316312 -0.24248132 99
4.6728806 -0.67630023 -0.23829444 99
4.6213727 -0.68345034 -0.23567766 99
4.5659184 -0.68966895 -0.23285149 99
nan nan nan nan
nan nan nan nan
3.3255923 -0.52926236 -0.16732688 99
nan nan nan nan
nan nan nan nan
4.4929538 -0.76605856 -0.22971134 99
nan nan nan nan
4.8041315 -0.85344577 -0.24656352 99
4.8917623 -0.88527685 -0.25137845 99
5.0145674 -0.92432934 -0.25807744 99
5.0390992 -0.94534671 -0.25954285 99
nan nan nan nan
4.5001888 -0.87128472 -0.23107208 99
4.4543562 -0.87673306 -0.22876929 99
4.4103374 -0.88307303 -0.22657119 99
4.3547492 -0.88592404 -0.22374505 99
4.3812537 -0.90580374 -0.22531511 99
4.4330616 -0.93131459 -0.22824594 99
4.4535298 -0.95034665 -0.22950201 99
4.419323 -0.95742202 -0.22782727 99
4.3808808 -0.96494484 -0.22594315 99
4.3758807 -0.97825825 -0.22583848 99
nan nan nan nan
4.1927209 -0.96413761 -0.21631333 99
4.1624727 -0.97081995 -0.21484794 99
4.1594019 -0.98389202 -0.21484794 99
4.1270194 -0.99054343 -0.21327785 99
4.092875 -0.99579477 -0.21160312 99
nan nan nan nan
3.4440503 -0.85748434 -0.17685202 99
3.4471402 -0.86980021 -0.17716604 99
nan nan nan nan
3.6767902 -0.95521545 -0.18993601 99
3.6814859 -0.96883744 -0.1903547 99
3.6321754 -0.96779823 -0.18784258 99
nan nan nan nan
3.3336229 -0.90896106 -0.17193244 99
nan nan nan nan
3.6677339 -1.0270934 -0.19045937 99
3.6760004 -1.0419421 -0.19108741 99
3.6821084 -1.0569342 -0.19161077 99
3.6749401 -1.0673615 -0.19140142 99
3.6333065 -1.0674294 -0.18930799 99
3.5840638 -1.0649278 -0.18679586 99
3.5787909 -1.0755967 -0.18669118 99
3.5868399 -1.090384 -0.18731922 99
nan nan nan nan
3.4253328 -1.0652049 -0.17884079 99
3.439085 -1.0814527 -0.17978284 99
nan nan nan nan
3.7928202 -1.2212496 -0.19967051 99
3.8155077 -1.2419527 -0.2011359 99
3.8681829 -1.2736305 -0.20427606 99
nan nan nan nan
3.6408873 -1.2229403 -0.19213413 99
nan nan nan nan
3.9273012 -1.3484635 -0.20846294 99
nan nan nan nan
3.479929 -1.2182213 -0.18407439 99
3.4648094 -1.2250886 -0.18344635 99
3.4740832 -1.2407447 -0.18417907 99
3.4532938 -1.2454578 -0.183237 99
nan nan nan nan
3.5819495 -1.3182386 -0.19087806 99
3.5217407 -1.3083055 -0.1877379 99
3.5082827 -1.3158039 -0.18721454 99
3.5150824 -1.3317387 -0.18784258 99
3.4829593 -1.3319168 -0.1862725 99
3.4954903 -1.3494197 -0.18721454 99
3.5246577 -1.3736346 -0.18909863 99
3.5240343 -1.3861837 -0.18930799 99
nan nan nan nan
nan nan nan nan
3.9191077 -1.5870385 -0.21244048 99
nan nan nan nan
nan nan nan nan
nan nan nan nan
3.3488619 -1.4035132 -0.18114357 99
3.3187454 -1.4029894 -0.17967817 99
3.294163 -1.4046729 -0.17852677 99
3.2766774 -1.4099871 -0.17779407 99
3.2758861 -1.4218861 -0.17800342 99
3.2750528 -1.433794 -0.17821276 99
3.2741768 -1.4457107 -0.17842209 99
3.2896359 -1.4650447 -0.17957349 99
3.2886515 -1.4770298 -0.17978284 99
3.270776 -1.4826539 -0.17905013 99
3.2769716 -1.4979674 -0.17967817 99
3.3102374 -1.5260336 -0.18187627 99
3.3216834 -1.5440961 -0.18281832 99
3.3186197 -1.5553818 -0.18292299 99
3.3155179 -1.5666633 -0.18302767 99
3.2851322 -1.5654753 -0.18156226 99
3.2496781 -1.5609093 -0.17978284 99
3.2447586 -1.5711107 -0.17978284 99
3.2380171 -1.5804101 -0.17967817 99
3.2205274 -1.58433 -0.17894545 99
3.215534 -1.5944399 -0.17894545 99
3.2016027 -1.6000171 -0.17842209 99
3.1734402 -1.5982516 -0.17706136 99
3.1483138 -1.5992529 -0.17590998 99
nan nan nan nan
2.9488676 -1.519894 -0.16471009 99
2.9140463 -1.5133102 -0.16293065 99
2.9057508 -1.5205827 -0.16272131 99
2.8903949 -1.5240465 -0.16209328 99
2.8747802 -1.5279309 -0.16146526 99
2.8647017 -1.5340918 -0.16115123 99
2.8808868 -1.5546008 -0.16240729 99
2.938936 -1.5983922 -0.16617548 99
2.9356456 -1.6085882 -0.16628017 99
2.8608801 -1.5787545 -0.16209328 99
2.8292665 -1.573997 -0.16052319 99
2.8468747 -1.5957183 -0.16188394 99
2.8418477 -1.6046541 -0.16188394 99
2.812577 -1.5995934 -0.16041854 99
2.807538 -1.6084213 -0.16041854 99
2.819705 -1.6273284 -0.16146526 99
2.8317804 -1.6463275 -0.16251197 99
2.8489151 -1.6684792 -0.1638727 99
2.8450799 -1.6789435 -0.16397737 99
2.8432124 -1.6899362 -0.16418673 99
2.8413033 -1.7009335 -0.16439606 99
2.820611 -1.7004724 -0.16345401 99
2.8152549 -1.7093251 -0.16345401 99
2.8183575 -1.723425 -0.16397737 99
2.8258731 -1.7417219 -0.16481474 99
2.8423607 -1.7644229 -0.16617548 99
2.8351166 -1.7722744 -0.1660708 99
2.8497372 -1.7940676 -0.16732688 99
2.8807313 -1.8272717 -0.16962966 99
2.8615642 -1.827629 -0.16879228 99
2.839077 -1.8257028 -0.16774556 99
nan nan nan nan
2.9408553 -1.9183868 -0.17486326 99
nan nan nan nan
nan nan nan nan
2.692488 -1.7907754 -0.16031386 99
2.7143028 -1.8192476 -0.16209328 99
2.7003319 -1.8221269 -0.16156992 99
2.6699224 -1.8136064 -0.15999983 99
2.6592877 -1.8185707 -0.15968582 99
2.6516054 -1.8262359 -0.15958115 99
2.6621935 -1.8460444 -0.16062787 99
2.6563809 -1.8543987 -0.16062787 99
nan nan nan nan
2.0977402 -1.4787618 -0.12535344 99
2.0833685 -1.4783297 -0.1247254 99
2.083041 -1.4891174 -0.12503941 99
2.0847983 -1.5003736 -0.12545809 99
2.084898 -1.5104705 -0.12577212 99
2.0865588 -1.5217731 -0.12619081 99
2.0913694 -1.5354908 -0.12681884 99
2.1104834 -1.5600537 -0.12838891 99
2.1339645 -1.5887395 -0.13027301 99
2.1575608 -1.6172215 -0.1321571 99
2.174659 -1.6410059 -0.13362251 99
2.1853042 -1.6600324 -0.13466923 99
2.1921113 -1.6774569 -0.13550662 99
2.2167172 -1.707719 -0.13749537 99
2.2678304 -1.7591586 -0.14126356 99
2.3029888 -1.7985301 -0.14398503 99
2.3254313 -1.8281753 -0.14586914 99
2.3523819 -1.8617301 -0.14806724 99
2.3648341 -1.8845875 -0.1493233 99
2.357353 -1.8907471 -0.14921863 99
2.3405838 -1.8892864 -0.14848593 99
2.3238475 -1.8877394 -0.14775322 99
2.2917702 -1.873356 -0.1459738 99
2.2644067 -1.8626292 -0.14450839 99
2.2517757 -1.8653817 -0.14408971 99
2.2474291 -1.8737366 -0.14419438 99
2.2415314 -1.880788 -0.14419438 99
2.2325788 -1.8852215 -0.14398503 99
2.2342081 -1.8987472 -0.14450839 99
2.2040958 -1.8848127 -0.14283364 99
2.1572216 -1.8566335 -0.1400075 99
2.1348779 -1.8488955 -0.13885611 99
2.120084 -1.8476529 -0.13822809 99
2.1097939 -1.8503197 -0.13791406 99
2.0980203 -1.8516073 -0.13749537 99
2.0921929 -1.8581895 -0.13749537 99
2.0916088 -1.8708518 -0.13791406 99
2.085721 -1.8774136 -0.13791406 99
2.0607002 -1.8663822 -0.13655333 99
2.0313721 -1.8511428 -0.13487858 99
2.0226231 -1.854793 -0.13466923 99
2.0211582 -1.8652352 -0.13498326 99
2.013509 -1.8705568 -0.13487858 99
2.0076225 -1.8768733 -0.13487858 99
2.0031605 -1.8845507 -0.13498326 99
1.9871514 -1.8811455 -0.13425055 99
1.9740539 -1.8804356 -0.13372718 99
1.9681364 -1.886628 -0.13372718 99
1.9615389 -1.8934866 -0.13372718 99
1.9527371 -1.8968344 -0.13351785 99
1.9453511 -1.9015527 -0.13341318 99
1.9450197 -1.9133008 -0.13383186 99
1.9488591 -1.9293134 -0.13456456 99
1.9554257 -1.9482101 -0.13550662 99
1.9545518 -1.960384 -0.13592529 99
1.9414089 -1.9593676 -0.13540193 99
1.9296823 -1.9597217 -0.13498326 99
1.9207443 -1.9628981 -0.13477391 99
1.9083571 -1.9638187 -0.13435522 99
1.9049307 -1.9726989 -0.13456456 99
1.8959805 -1.9757705 -0.13435522 99
nan nan nan nan
1.7595292 -1.8547635 -0.12483008 99
1.7387551 -1.8441726 -0.12367868 99
1.7366894 -1.8543353 -0.1239927 99
1.7362496 -1.8656751 -0.12441137 99
1.7263482 -1.866688 -0.12409736 99
1.7218144 -1.8735839 -0.12420204 99
1.7185891 -1.8819556 -0.12441137 99
1.7113385 -1.8858557 -0.12430672 99
1.7047452 -1.8918178 -0.12430672 99
1.6948334 -1.8926674 -0.1239927 99
1.6757259 -1.8829525 -0.12294598 99
1.658007 -1.8746436 -0.12200393 99
1.6521094 -1.8798432 -0.12200393 99
1.6409913 -1.8789629 -0.12158525 99
1.6282712 -1.8767959 -0.12106189 99
1.6210756 -1.8803785 -0.12095721 99
1.6113007 -1.8808786 -0.12064318 99
1.6028204 -1.8828679 -0.12043385 99
1.5962383 -1.8884513 -0.12043385 99
1.5877547 -1.8903762 -0.12022451 99
1.575475 -1.8876338 -0.11970115 99
1.56449 -1.8863813 -0.11928247 99
1.5560421 -1.8881825 -0.11907311 99
1.5526066 -1.896174 -0.11928247 99
1.547557 -1.9028722 -0.11938713 99
1.5415711 -1.9077246 -0.11938713 99
1.5318593 -1.9078541 -0.11907311 99
1.5246258 -1.9110854 -0.11896844 99
1.5186145 -1.9158655 -0.11896844 99
1.5125881 -1.920627 -0.11896844 99
1.5010079 -1.9195596 -0.11854975 99
1.4925467 -1.9210901 -0.11834042 99
1.4865041 -1.9257696 -0.11834042 99
1.4804467 -1.9304301 -0.11834042 99
1.4740371 -1.935329 -0.11834042 99
1.4643757 -1.9351411 -0.11802639 99
1.4547302 -1.9349117 -0.11771238 99
1.4510069 -1.9426934 -0.11792172 99
1.4401914 -1.9407854 -0.11750303 99
1.4340873 -1.9453003 -0.11750303 99
1.4331156 -1.9584043 -0.11802639 99
1.4269559 -1.9628968 -0.11802639 99
1.4196271 -1.9657408 -0.11792172 99
1.407694 -1.9620268 -0.11739837 99
1.4015231 -1.9664396 -0.11739837 99
1.3976182 -1.9741129 -0.11760771 99
1.391064 -1.9787368 -0.11760771 99
1.381453 -1.9781548 -0.1172937 99
1.3718596 -1.9775324 -0.11697967 99
1.3689966 -1.9867957 -0.1172937 99
1.3605208 -1.9877708 -0.11708435 99
1.3509444 -1.987051 -0.11677034 99
1.3495131 -2.0000808 -0.1172937 99
1.3443205 -2.0059795 -0.11739837 99
1.3347354 -2.0051763 -0.11708435 99
1.3273423 -2.0076842 -0.11697967 99
1.3206774 -2.0120747 -0.11697967 99
1.3100456 -2.0094833 -0.116561 99
1.3037262 -2.0135891 -0.116561 99
1.3016554 -2.0244322 -0.11697967 99
1.2903428 -2.0221913 -0.116561 99
1.2808208 -2.0211458 -0.11624697 99
1.2765626 -2.028559 -0.11645631 99
1.2733141 -2.0376685 -0.11677034 99
1.2669064 -2.0416586 -0.11677034 99
1.2563549 -2.0387907 -0.11635163 99
1.2536957 -2.0497973 -0.11677034 99
1.2472498 -2.053726 -0.11677034 99
1.2387588 -2.0541956 -0.116561 99
1.2353323 -2.0632443 -0.11687501 99
1.2268331 -2.0636637 -0.11666566 99
1.2213444 -2.0692365 -0.11677034 99
1.216102 -2.076952 -0.11697967 99
1.2075938 -2.0772913 -0.11677034 99
1.1990955 -2.0775979 -0.116561 99
1.1925625 -2.0813549 -0.116561 99
1.184682 -2.0835531 -0.11645631 99
1.1742646 -2.0802729 -0.11603764 99
1.1677237 -2.083952 -0.11603764 99
1.1602154 -2.0858562 -0.11593296 99
1.1500791 -2.0846217 -0.11561894 99
1.1463559 -2.0935054 -0.11593296 99
1.1435264 -2.1041489 -0.11635163 99
1.1331794 -2.1006665 -0.11593296 99
1.1265746 -2.1042161 -0.11593296 99
1.1236448 -2.1148326 -0.11635163 99
1.1120468 -2.1096723 -0.11582828 99
1.1026834 -2.1078222 -0.11551428 99
1.1005787 -2.1201792 -0.11603764 99
1.0939127 -2.1236262 -0.11603764 99
1.0838151 -2.122072 -0.11572362 99
1.0762559 -2.1236768 -0.11561894 99
1.0695788 -2.1270475 -0.11561894 99
1.0637671 -2.1321924 -0.11572362 99
1.0575602 -2.1375058 -0.11582828 99
1.0482473 -2.135416 -0.11551428 99
1.0398164 -2.135092 -0.11530492 99
1.0373679 -2.1473782 -0.11582828 99
1.0298662 -2.150986 -0.11582828 99
1.0214217 -2.1505878 -0.11561894 99
1.0146605 -2.1537859 -0.11561894 99
1.00623 -2.1533294 -0.1154096 99
0.99698895 -2.1510217 -0.11509558 99
0.98940825 -2.1523211 -0.11499092 99
0.98145336 -2.1537657 -0.11488624 99
0.97871387 -2.1659746 -0.1154096 99
0.97430634 -2.1745279 -0.11572362 99
0.96667498 -2.1757457 -0.11561894 99
0.95749754 -2.1754365 -0.1154096 99
0.94596255 -2.1674087 -0.11478157 99
0.93604124 -2.1630101 -0.11436288 99
0.93463904 -2.1788368 -0.11509558 99
0.9304688 -2.1893044 -0.11551428 99
0.92358619 -2.1922164 -0.11551428 99
0.91443461 -2.189558 -0.11520026 99
0.90755129 -2.1924198 -0.11520026 99
0.90211564 -2.2011387 -0.11551428 99
0.89152008 -2.1946769 -0.11499092 99
0.88462085 -2.1974669 -0.11499092 99
0.87988377 -2.2058198 -0.11530492 99
0.87223202 -2.2067091 -0.11520026 99
0.86600691 -2.2113047 -0.11530492 83
0.85725784 -2.2104273 -0.11509558 77
0.85240877 -2.2187216 -0.1154096 83
0.84890366 -2.2307529 -0.11593296 99
0.83982724 -2.2277837 -0.11561894 99
0.83136451 -2.2288244 -0.11551428 99
0.8236829 -2.2295454 -0.1154096 98
0.81868345 -2.2377672 -0.11572362 99
0.8129766 -2.2440956 -0.11593296 99
0.80618787 -2.2486649 -0.11603764 99
0.79716498 -2.2455227 -0.11572362 99
0.78752387 -2.2404556 -0.11530492 99
0.78048134 -2.2429187 -0.11530492 99
0.77074826 -2.2399468 -0.11499092 99
0.76496166 -2.2461495 -0.11520026 99
0.75976509 -2.2542365 -0.11551428 99
0.75452489 -2.2623124 -0.11582828 99
0.74945414 -2.2724109 -0.11624697 99
0.73929673 -2.265234 -0.11572362 99
0.73098302 -2.2637334 -0.11551428 99
0.72741318 -2.2774653 -0.1161423 97
0.72083986 -2.2816494 -0.11624697 99
0.71251029 -2.2800794 -0.11603764 99
0.70511943 -2.2844663 -0.1161423 92
0.69850528 -2.2885854 -0.11624697 99
0.69299257 -2.29652 -0.116561 99
0.68743724 -2.3044419 -0.11687501 99
0.67814803 -2.3009472 -0.116561 99
0.66983229 -2.2992213 -0.11635163 99
0.66260624 -2.3013144 -0.11635163 99
0.65643257 -2.3072362 -0.116561 99
0.64994341 -2.3152964 -0.11687501 99
0.64266664 -2.3173265 -0.11687501 99
0.63385069 -2.3135419 -0.116561 99
0.62657964 -2.3155217 -0.116561 99
0.61889774 -2.3175867 -0.116561 99
0.61013675 -2.3137126 -0.11624697 99
0.60480976 -2.3233664 -0.11666566 99
0.59894836 -2.3310714 -0.11697967 99
0.59399217 -2.3426423 -0.11750303 99
0.58850133 -2.3522637 -0.11792172 99
0.57705855 -2.3407004 -0.11718902 99
0.56970209 -2.3425021 -0.11718902 99
0.56323844 -2.3481724 -0.11739837 99
0.55497289 -2.346035 -0.11718902 99
0.54719001 -2.3478627 -0.11718902 99
0.540672 -2.3534708 -0.11739837 99
0.53285134 -2.3532059 -0.1172937 99
0.52461994 -2.3509624 -0.11708435 99
0.51764411 -2.3586431 -0.11739837 99
0.51225656 -2.3700359 -0.11792172 99
0.50480855 -2.3716335 -0.11792172 99
0.49539167 -2.3634169 -0.11739837 99
0.48755145 -2.3650465 -0.11739837 99
0.48087907 -2.3704882 -0.11760771 99
0.47455147 -2.3778727 -0.11792172 99
0.46854964 -2.3872042 -0.11834042 99
0.46140951 -2.3906288 -0.11844508 99
0.45389673 -2.3920667 -0.11844508 99
0.44554433 -2.3936365 -0.11844508 99
0.4380222 -2.3950245 -0.11844508 99
0.43083188 -2.3983574 -0.11854975 99
0.42329529 -2.3996987 -0.11854975 99
0.41436478 -2.3951769 -0.11823574 99
0.40683797 -2.3964667 -0.11823574 99
0.39930713 -2.397733 -0.11823574 99
0.39177266 -2.3989756 -0.11823574 99
0.38518405 -2.412178 -0.11886378 99
0.3796466 -2.4272068 -0.11959647 99
0.37144819 -2.4244342 -0.11938713 99
0.36382967 -2.4255893 -0.11938713 99
0.35632962 -2.4307394 -0.11959647 99
0.34922481 -2.4358058 -0.11980583 99
0.342352 -2.4428313 -0.12011983 99
0.33391374 -2.437952 -0.11980583 99
0.32625294 -2.4389889 -0.11980583 99
0.31931391 -2.4459496 -0.12011983 99
0.31053922 -2.4450657 -0.12001516 99
0.3030847 -2.4480135 -0.12011983 99
0.29563111 -2.4549596 -0.12043385 99
0.2885645 -2.461833 -0.12074786 99
0.28124779 -2.4667001 -0.12095721 99
0.27410689 -2.4735322 -0.12127122 99
0.26547062 -2.474474 -0.12127122 99
0.25769544 -2.4752955 -0.12127122 88
0.25046936 -2.4820595 -0.12158525 91
0.2419602 -2.4748764 -0.12116654 99
0.23392302 -2.4776552 -0.12127122 99
0.22679704 -2.4863396 -0.12168992 99
0.21866788 -2.483058 -0.12148057 99
0.2113225 -2.4897072 -0.12179458 99
0.20393777 -2.4963343 -0.12210861 99
0.19609419 -2.4969628 -0.12210861 99
0.18764262 -2.5016177 -0.12231794 99
0.17978254 -2.5021946 -0.12231794 99
0.17172354 -2.5067644 -0.12252729 99
0.16452882 -2.5192559 -0.12315533 99
0.15715028 -2.5297322 -0.12367868 99
0.14899993 -2.5262241 -0.12346934 99
0.14115779 -2.5286746 -0.123574 99
0.13356698 -2.537087 -0.1239927 99
0.12511805 -2.5475159 -0.12451605 99
0.11703877 -2.5459001 -0.12441137 99
0.10838955 -2.5402861 -0.12409736 90
0.10053314 -2.5446069 -0.12430672 89
0.092594817 -2.5469062 -0.12441137 93
0.084393546 -2.5391982 -0.1239927 80
0.075529806 -2.5394773 -0.1239927 78
0.067624524 -2.5436959 -0.12420204 95
0.059541836 -2.537905 -0.12388802 99
0.051664885 -2.5460677 -0.12430672 99
0.043273725 -2.5522165 -0.12462074 99
0.035277683 -2.5563345 -0.12483008 79
0.02726626 -2.5644217 -0.12524876 73
0.019206855 -2.5684891 -0.12545809 71
0.010207809 -2.5765297 -0.1258768 79
0.0020839591 -2.5805435 -0.12608613 78
-0.0059395209 -2.5725486 -0.12566745 73
-0.013994008 -2.5705202 -0.12556277 80
-0.022585802 -2.5744536 -0.12577212 75
-0.030753858 -2.5783637 -0.12598146 78
-0.03908547 -2.5882378 -0.12650482 78
-0.047584686 -2.6020784 -0.12723753 74
-0.056727327 -2.6038928 -0.12734219 76
-0.064973094 -2.6056979 -0.12744687 84
-0.07351964 -2.6154609 -0.12797023 99
-0.080638029 -2.5872767 -0.12650482 99
-0.088706918 -2.5750225 -0.1258768 99
-0.097526647 -2.5906923 -0.12671417 99
nan nan nan nan
-0.10757243 -2.4703548 -0.12043385 99
nan nan nan nan
-0.13413821 -2.64305 -0.12954031 99
-0.14244105 -2.6426156 -0.12954031 99
-0.15100165 -2.6461411 -0.12974966 99
-0.16004792 -2.649611 -0.129959 99
-0.16908319 -2.6590562 -0.13048236 99
-0.17803097 -2.6664786 -0.13090104 99
-0.1871817 -2.6758623 -0.1314244 99
-0.19700721 -2.681165 -0.13173842 93
nan nan nan nan
-0.20460485 -2.5744236 -0.12619081 99
nan nan nan nan
-0.20924066 -2.4457872 -0.1194918 99
-0.22021277 -2.4789114 -0.12127122 98
nan nan nan nan
-0.25885567 -2.6999791 -0.13299447 90
-0.26849148 -2.7010446 -0.13309915 98
nan nan nan nan
-0.26719952 -2.5385599 -0.12462074 99
-0.27216217 -2.511919 -0.12325999 99
-0.27882305 -2.4971213 -0.12252729 99
-0.28740007 -2.5021799 -0.1228413 99
nan nan nan nan
nan nan nan nan
-0.34033248 -2.7130656 -0.13414587 83
nan nan nan nan
nan nan nan nan
nan nan nan nan
-0.31475765 -2.2974517 -0.1123741 99
-0.32226905 -2.2984269 -0.11247879 99
nan nan nan nan
nan nan nan nan
nan nan nan nan
-0.42568752 -2.7474823 -0.13655333 89
-0.43643239 -2.7559066 -0.13707669 84
-0.4447549 -2.7525527 -0.13697201 81
-0.44932461 -2.7275238 -0.13571595 82
nan nan nan nan
-0.38170895 -2.2467752 -0.11028067 99
-0.38410088 -2.2200234 -0.10891993 99
nan nan nan nan
nan nan nan nan
-0.51907307 -2.8065629 -0.14042619 99
-0.53019041 -2.8166788 -0.14105423 99
-0.54119122 -2.8206868 -0.14136824 99
-0.55005014 -2.8189726 -0.14136824 99
-0.55970919 -2.8211432 -0.14157759 99
-0.5697968 -2.8252356 -0.1418916 99
-0.58040905 -2.8291912 -0.14220561 99
-0.59055972 -2.8332107 -0.14251964 99
-0.60288024 -2.8469481 -0.14335699 99
-0.61616129 -2.8645358 -0.14440373 99
nan nan nan nan
-0.6020748 -2.7163363 -0.136658 99
nan nan nan nan
-0.65081 -2.8466201 -0.14388035 99
nan nan nan nan
nan nan nan nan
nan nan nan nan
nan nan nan nan
-0.70821148 -2.8802114 -0.14628781 99
-0.72073311 -2.8915138 -0.14702052 99
-0.72729921 -2.8775105 -0.14639249 99
-0.72615212 -2.8365862 -0.14429905 99
-0.73505968 -2.8342912 -0.14429905 99
-0.7580356 -2.8840244 -0.14712518 99
-0.77658457 -2.9163039 -0.14900929 99
-0.78414243 -2.9080753 -0.14869526 99
-0.79590887 -2.9110892 -0.14900929 99
-0.81051213 -2.9277856 -0.150056 99
-0.81192869 -2.896292 -0.14848593 99
nan nan nan nan
-0.7776047 -2.7129638 -0.13875145 99
nan nan nan nan
-0.85388482 -2.9008605 -0.1493233 99
-0.87524289 -2.9382777 -0.15152141 99
-0.87563044 -2.9068882 -0.14995134 99
nan nan nan nan
-0.82881105 -2.6935818 -0.13854209 99
-0.82876337 -2.6643283 -0.13707669 99
nan nan nan nan
nan nan nan nan
-0.97122419 -3.0088646 -0.15654567 99
-0.98446476 -3.0171661 -0.15717371 89
-0.99330068 -3.0121658 -0.15706903 87
-1.0046903 -3.0147023 -0.15738304 85
-1.0198841 -3.0264616 -0.15822043 85
-1.0313557 -3.0289018 -0.15853444 99
-1.0432475 -3.0290515 -0.15874378 99
-1.055433 -3.033287 -0.15916246 99
-1.0683302 -3.0393553 -0.15968582 99
-1.0812756 -3.0453732 -0.16020918 99
-1.0948021 -3.0511482 -0.16073254 99
-1.1064601 -3.0533137 -0.16104655 99
-1.1167455 -3.0516934 -0.16115123 99
-1.1277353 -3.0519083 -0.16136058 99
-1.1405144 -3.0535529 -0.16167459 99
-1.1529686 -3.0574112 -0.16209328 99
-1.1683489 -3.0686698 -0.16293065 99
-1.1838109 -3.0798619 -0.16376802 97
nan nan nan nan
nan nan nan nan
-1.1217767 -2.8382413 -0.15078871 99
-1.1434839 -2.8661532 -0.15256813 91
nan nan nan nan
-1.2638884 -3.1061723 -0.16659418 76
-1.2826563 -3.1222336 -0.16774556 80
-1.2978923 -3.1310701 -0.16847827 82
-1.3116323 -3.1361663 -0.16900162 79
-1.3254174 -3.141207 -0.169525 75
-1.3395512 -3.1438913 -0.16994368 74
-1.3550206 -3.1524782 -0.17067638 68
-1.357667 -3.1317575 -0.16973433 31
nan nan nan nan
-3.2743468 -7.350688 -0.41257322 65
-3.2834299 -7.3094287 -0.41079378 66
-3.2922862 -7.2681861 -0.40901434 71
-3.3025844 -7.2305903 -0.4074443 70
-3.3177128 -7.1972785 -0.40618822 68
-3.333535 -7.1723485 -0.40535086 65
-3.3453643 -7.1359682 -0.40388542 65
-3.3548913 -7.0983725 -0.40231538 69
-3.3659439 -7.0643878 -0.40095463 71
-3.375947 -7.0286064 -0.39948922 72
-3.389075 -6.9934444 -0.39812848 72
-3.4022143 -6.9648404 -0.39708176 71
-3.4152057 -6.9362245 -0.39603505 72
-3.4253743 -6.9022346 -0.39467433 71
-3.4338658 -6.8622985 -0.39299956 73
-3.4427483 -6.8265452 -0.39153415 63
-3.4528997 -6.7878208 -0.38996407 68
-3.4586346 -6.7467685 -0.38818467 72
-3.4715176 -6.7199225 -0.38724262 71
-3.4833403 -6.6912932 -0.3861959 69
-3.493381 -6.6567483 -0.38483515 69
-3.5058293 -6.6298728 -0.3838931 72
-3.5134234 -6.5941863 -0.38242769 74
