# .PCD v0.7 - Point Cloud Data file format
VERSION 0.7
FIELDS x y z intensity
SIZE 4 4 4 4
TYPE F F F F
COUNT 1 1 1 1
WIDTH 1429
HEIGHT 1
VIEWPOINT 0 0 0 1 0 0 0
POINTS 1429
DATA ascii
-4.1647754 -4.7208748 -0.32077593 39
-4.2115283 -4.7435074 -0.32328805 63
-4.2633042 -4.7696023 -0.32611418 76
-4.3171458 -4.7991195 -0.32914966 66
-4.3739018 -4.8312984 -0.33239451 78
-4.4255047 -4.8572793 -0.33522066 69
-4.4790173 -4.8814201 -0.33804679 54
-4.5242405 -4.8995132 -0.34034958 35
-4.5813951 -4.9282398 -0.34348974 46
-4.6379266 -4.9574499 -0.34662989 59
-4.6823211 -4.9733043 -0.34882799 62
-4.7337523 -4.9961581 -0.35154948 65
-4.7926593 -5.0228267 -0.35468963 63
-4.8514314 -5.0522766 -0.35793447 62
-4.8932223 -5.0619335 -0.35981855 56
-4.9440231 -5.0822248 -0.36243537 54
-5.0286345 -5.1363969 -0.36756429 56
-5.1023846 -5.1787395 -0.37185583 52
-5.1528802 -5.1934123 -0.37426329 38
-5.183322 -5.1912928 -0.37531 33
-5.2402658 -5.2134051 -0.37824082 35
-5.3278317 -5.2669249 -0.38347441 51
-5.4072161 -5.3115683 -0.38807997 50
-5.4726 -5.3418565 -0.39163882 52
-5.5487313 -5.3781657 -0.39582571 50
-5.6305013 -5.4228816 -0.40053594 50
-5.7034326 -5.4565001 -0.40451348 52
-5.7785921 -5.4934483 -0.40870035 53
-5.8545151 -5.5265632 -0.41278255 35
-5.9258761 -5.5585623 -0.41665542 36
-6.0004272 -5.5928807 -0.42073762 40
-6.0811229 -5.6322012 -0.42523849 43
nan nan nan nan
-3.3146074 -3.0433927 -0.22667585 34
-3.3434148 -3.050374 -0.22803658 53
-3.376755 -3.0612097 -0.22971134 65
-3.3874209 -3.0494032 -0.22971134 65
-3.3999732 -3.0413966 -0.2299207 51
-3.4235322 -3.0419831 -0.23086275 51
-3.4691486 -3.0627744 -0.23337486 56
-3.5250537 -3.0899391 -0.23651503 42
-3.5695169 -3.1088665 -0.23892248 33
nan nan nan nan
nan nan nan nan
-4.0214467 -3.4319203 -0.26791659 98
-4.0215092 -3.4102709 -0.2671839 95
-4.0318556 -3.3949318 -0.26707923 85
-4.0286694 -3.3707688 -0.26613718 33
nan nan nan nan
-7.8347664 -6.4466844 -0.52258337 47
-7.9413009 -6.4900064 -0.52834034 52
-8.0501738 -6.5366106 -0.53430665 48
-8.1383524 -6.560986 -0.53870285 52
-8.1948357 -6.5640335 -0.54111034 52
-8.2373285 -6.5556259 -0.54257572 46
-8.2751455 -6.5433054 -0.5437271 50
-8.3015175 -6.5195189 -0.54404116 57
-8.315649 -6.4885058 -0.54362243 60
-8.3461533 -6.465539 -0.54414582 57
-8.3616705 -6.4356418 -0.54383183 59
-8.3273439 -6.3655362 -0.54016823 61
-8.1880016 -6.2188687 -0.52970105 67
-8.0717754 -6.0911331 -0.52080393 66
nan nan nan nan
-7.1203022 -5.3025818 -0.45611674 64
-7.0420294 -5.2103243 -0.44994107 43
-7.0512071 -5.1810493 -0.44941771 53
-7.0658321 -5.1576996 -0.44931304 63
-7.0366511 -5.1027541 -0.44638225 60
-6.9633613 -5.0166316 -0.44062531 43
-6.8962045 -4.9320865 -0.43518236 43
-6.8611021 -4.8746629 -0.43193752 44
-6.8134708 -4.8071399 -0.42785531 41
-6.7564459 -4.7354565 -0.42324972 46
-6.7269464 -4.6800237 -0.42031893 41
-6.7202187 -4.6441607 -0.41895819 44
-6.7182813 -4.6117649 -0.4179115 45
-6.7211647 -4.5827899 -0.41717881 53
-6.7164435 -4.5470905 -0.41592273 54
-6.6808858 -4.4926629 -0.41278255 62
-6.6200995 -4.421926 -0.40807232 59
-6.6072826 -4.3835125 -0.40639758 51
-6.6058335 -4.349483 -0.40535086 62
-6.5709057 -4.2971373 -0.40231538 52
-6.5700164 -4.2655749 -0.4013733 45
-6.5968361 -4.2535377 -0.40221071 61
-6.6099582 -4.2294126 -0.40210602 77
-6.5945072 -4.1904926 -0.40032658 68
-6.5805674 -4.1527739 -0.39865184 61
-6.5766296 -4.1215181 -0.39760512 58
-6.5698767 -4.0870819 -0.39634904 49
-6.5486426 -4.0455217 -0.39425561 59
-6.5408554 -4.012454 -0.39299956 53
-6.543179 -3.9856775 -0.39237154 47
-6.5382166 -3.9515028 -0.39122015 47
-6.5368762 -3.9227567 -0.39038277 57
-6.541254 -3.8959734 -0.38985941 47
-6.5431299 -3.8693323 -0.38923138 45
-6.5548711 -3.845463 -0.38912669 45
-6.5669198 -3.8248506 -0.38912669 46
-6.5674424 -3.7960913 -0.388394 51
-6.5654564 -3.7675261 -0.38755661 48
-6.5789981 -3.747865 -0.38766128 54
-6.5837746 -3.7232645 -0.38724262 49
-6.5827746 -3.692482 -0.38640523 48
-6.5873518 -3.6679158 -0.38598654 48
-6.6047301 -3.6489356 -0.38630053 50
-6.6249313 -3.6329453 -0.38682392 60
-6.6275272 -3.6073644 -0.38630053 55
-6.6247487 -3.57897 -0.38546318 51
-6.6266227 -3.5501938 -0.38483515 48
-6.613018 -3.5162997 -0.38336974 46
-6.5963349 -3.4795222 -0.381695 44
-6.5983734 -3.4541752 -0.38117161 52
-6.5914431 -3.4242709 -0.3801249 52
-6.5648336 -3.3844328 -0.3779268 61
-6.5694842 -3.3578811 -0.37750813 64
-6.6085415 -3.3516006 -0.37918288 65
-6.6053247 -3.3225276 -0.37834549 57
-6.5763593 -3.2822499 -0.37604269 48
-6.5985332 -3.2645574 -0.37667072 55
-6.630301 -3.2543118 -0.3779268 57
-6.6404924 -3.233464 -0.3779268 59
-6.6344094 -3.2048151 -0.37698475 55
-6.6305709 -3.1759357 -0.37614739 52
-6.6332903 -3.1516814 -0.3757287 51
-6.6315851 -3.1225877 -0.37499598 56
-6.6250534 -3.0941803 -0.37405396 61
-6.6238532 -3.0683458 -0.3734259 66
-6.6225572 -3.0425494 -0.37279788 61
-6.6162291 -3.0131683 -0.37185583 62
-6.5746307 -2.969497 -0.36892501 49
-6.522891 -2.9189739 -0.36536616 43
-6.517405 -2.892031 -0.36452881 44
-6.5447631 -2.8795307 -0.36557552 57
-6.5611095 -2.862128 -0.36599419 77
-6.5191674 -2.8183153 -0.3630634 82
nan nan nan nan
-6.1419449 -2.6084056 -0.34055892 36
-6.0966558 -2.5667934 -0.33752346 35
-6.117609 -2.5529706 -0.33825615 50
-6.1681037 -2.5511625 -0.34066361 54
nan nan nan nan
-6.6550779 -2.7006595 -0.36725026 60
-6.7052855 -2.6936731 -0.36955306 65
-6.7044253 -2.6689293 -0.36902967 69
-6.7057986 -2.6437733 -0.36861101 71
-6.7103453 -2.6212504 -0.36840165 69
-6.714819 -2.5987253 -0.36819232 67
-6.72295 -2.5776169 -0.36819232 64
-6.7412534 -2.5576487 -0.36871567 59
-6.7604842 -2.540642 -0.3693437 65
-6.785738 -2.5244281 -0.37028575 70
-6.8180242 -2.5120032 -0.37164649 72
-6.8455362 -2.4949734 -0.37269321 74
-6.8665042 -2.4781647 -0.3734259 76
-6.8930836 -2.4632459 -0.37447262 77
-6.9102111 -2.4448836 -0.37499598 77
-6.9069586 -2.4180274 -0.37436795 74
-6.8994093 -2.3911278 -0.37353057 71
-6.9001493 -2.3644617 -0.3731119 68
-6.9056497 -2.3421378 -0.37300724 68
-6.9053922 -2.3179107 -0.37258852 65
-6.9088459 -2.2949569 -0.37237918 63
-6.9088216 -2.269562 -0.37196052 62
-6.9064107 -2.2447863 -0.37143713 58
-6.9161081 -2.2212701 -0.3715418 58
-6.9230518 -2.1995327 -0.3715418 55
-6.9303083 -2.1765625 -0.3715418 55
-6.9313841 -2.1530185 -0.37122777 54
-6.9304709 -2.1289082 -0.37080911 54
-6.9313855 -2.1054015 -0.37049508 53
-6.9386935 -2.0811918 -0.37049508 54
-6.9451971 -2.0593843 -0.37049508 54
-6.9500699 -2.0357859 -0.37039042 55
-6.9621916 -2.0155926 -0.37070444 53
-6.9742546 -1.9953395 -0.37101847 54
-6.9862595 -1.9750342 -0.37133247 54
-6.9911857 -1.9501026 -0.37122777 57
-6.9953504 -1.9276059 -0.37112314 59
-7.0152054 -1.9080276 -0.37185583 62
-7.0230956 -1.8864936 -0.37196052 64
-7.0315704 -1.8624709 -0.37206519 64
-7.0412536 -1.841372 -0.37227452 65
-7.0492568 -1.8185054 -0.37237918 66
-7.0684929 -1.7997607 -0.3731119 66
-7.0779891 -1.7785077 -0.37332124 71
-7.0796618 -1.7553139 -0.3731119 71
-7.0935121 -1.7324618 -0.37353057 71
-7.0989199 -1.7101697 -0.37353057 79
-7.1006632 -1.6857077 -0.37332124 83
-7.1059237 -1.6633935 -0.37332124 78
-7.122798 -1.6437204 -0.37394926 78
-7.1220808 -1.6200246 -0.37363523 84
-7.0984383 -1.5886934 -0.37206519 88
-7.0838776 -1.5621419 -0.37101847 94
-7.077301 -1.5361342 -0.37039042 98
-7.0820918 -1.513894 -0.37039042 99
-7.0384393 -1.4790363 -0.36777362 99
-6.9804258 -1.4441545 -0.36442414 87
-6.9829702 -1.421823 -0.36431944 72
-6.9619288 -1.3948543 -0.3629587 73
-6.8782825 -1.3546568 -0.35824847 54
-6.7844067 -1.3143471 -0.35301489 45
-6.7418351 -1.281846 -0.35050276 49
-6.7517223 -1.2617437 -0.35081676 57
-6.7932153 -1.24608 -0.35280553 59
-6.8206968 -1.2289103 -0.3540616 57
-6.7969747 -1.2026879 -0.35259619 60
-6.7436237 -1.1715909 -0.34956071 58
-6.6826625 -1.1371883 -0.34610653 56
-6.6152463 -1.1045687 -0.34233835 61
-6.5340738 -1.0690278 -0.33783743 62
-6.4545326 -1.0354735 -0.33344123 58
-6.3906364 -1.0048604 -0.32988238 49
-6.3503132 -0.97823215 -0.32757962 38
-6.329977 -0.95257044 -0.32632354 39
-6.3408461 -0.93381733 -0.32674223 52
-6.3557749 -0.91445279 -0.32737026 55
-6.3863182 -0.89828521 -0.32883567 66
nan nan nan nan
-6.8555589 -0.91642678 -0.35332888 62
-6.9000106 -0.90018672 -0.35552701 63
-6.9067683 -0.87899727 -0.35573635 63
-6.91956 -0.85728645 -0.3562597 67
-6.9301529 -0.83647698 -0.3566784 66
-6.9389834 -0.81296194 -0.35699242 66
-6.9415035 -0.79115653 -0.35699242 73
-6.9538836 -0.77041644 -0.35751578 75
-6.9741468 -0.75043565 -0.3584578 70
-6.9746103 -0.72710299 -0.35835314 63
-6.9569826 -0.70324033 -0.35730642 58
-6.9494529 -0.67801166 -0.35678306 59
-6.9595051 -0.65690249 -0.35720176 62
-6.9735832 -0.63486922 -0.35782981 62
-6.9715624 -0.61262149 -0.35762045 59
-6.959518 -0.58957809 -0.35688776 63
-6.9812474 -0.56927609 -0.35793447 57
-6.9971337 -0.54594916 -0.35866717 54
-7.0047908 -0.52439338 -0.35898119 53
-7.0104756 -0.50143462 -0.35919052 58
-7.0060377 -0.47901699 -0.35887653 59
-7.0015278 -0.45663214 -0.3585625 60
-7.0069151 -0.43487078 -0.35877183 73
-7.010385 -0.41052008 -0.35887653 64
-6.9996729 -0.3878668 -0.35824847 54
-6.9929419 -0.364261 -0.35782981 56
-6.9960461 -0.34238157 -0.35793447 54
-6.9892173 -0.31762144 -0.35751578 60
-6.9562531 -0.29432762 -0.35573635 67
-6.9451675 -0.27204096 -0.35510832 74
-6.9819193 -0.25140613 -0.35699242 68
-7.004674 -0.22890334 -0.35814381 63
-7.0013666 -0.20679012 -0.35793447 53
-6.9900646 -0.18207495 -0.35730642 51
-6.990602 -0.16011213 -0.35730642 56
-7.0030527 -0.13835186 -0.35793447 66
-7.0034528 -0.11635014 -0.35793447 62
-6.9898195 -0.09298265 -0.35720176 56
-6.9740996 -0.070906706 -0.35636437 62
-6.9623218 -0.046519667 -0.35573635 73
-6.9544444 -0.024640515 -0.35531765 57
-6.9604793 -0.0015649293 -0.35563168 57
-6.9944029 0.020505516 -0.35741109 65
-7.0342474 0.042840138 -0.35950452 59
-7.0500555 0.065135859 -0.36034191 56
-7.0677581 0.090025604 -0.36128399 54
-7.0794215 0.11245704 -0.36191198 67
-7.0730195 0.13579673 -0.36159796 72
-7.0705609 0.15796806 -0.36149329 74
-7.0720267 0.18023553 -0.36159796 65
-7.0674329 0.20232621 -0.36138862 60
-7.0746675 0.22727533 -0.36180732 65
-7.1278052 0.25156093 -0.36463347 67
-7.214736 0.27884412 -0.36923903 71
-7.3574829 0.30793357 -0.37677541 78
nan nan nan nan
-7.7242861 0.37567508 -0.39613971 70
-7.6373129 0.39526391 -0.39163882 75
nan nan nan nan
nan nan nan nan
nan nan nan nan
-7.2030525 0.46621674 -0.36913434 89
nan nan nan nan
-7.4528499 0.53147626 -0.38242769 80
nan nan nan nan
-7.311996 0.5672397 -0.37520534 82
-7.3022165 0.58954459 -0.37478665 79
-7.3001142 0.61502892 -0.37478665 74
-7.3259945 0.64047503 -0.37625206 78
-7.3576355 0.66793144 -0.37803146 81
-7.4370079 0.6989345 -0.38232303 82
nan nan nan nan
nan nan nan nan
nan nan nan nan
-7.2189031 0.77202171 -0.37133247 88
-7.2043962 0.79460824 -0.37070444 84
-7.2117825 0.81839263 -0.37122777 85
-7.2052102 0.84056926 -0.37101847 81
-7.2045159 0.86344647 -0.37112314 80
-7.2212734 0.89109135 -0.37216985 84
nan nan nan nan
-7.0154037 0.91112989 -0.36159796 81
nan nan nan nan
-7.7509799 1.0612292 -0.40084997 59
-7.7654023 1.088115 -0.40179199 66
-7.7402067 1.1093303 -0.40064061 64
-7.6418662 1.1194863 -0.39561635 73
nan nan nan nan
nan nan nan nan
-6.5554252 1.0240492 -0.33857018 37
-6.5364046 1.0420732 -0.33773276 56
-6.6000891 1.0737175 -0.34129161 81
-6.596684 1.0944456 -0.34129161 79
-6.5241323 1.1044291 -0.33762813 70
-6.4694858 1.1159312 -0.33490664 70
-6.4399943 1.133921 -0.33354589 72
-6.4246116 1.1519947 -0.33291787 82
-6.4091787 1.1699827 -0.33228984 91
-6.430984 1.1949358 -0.33365056 96
-6.5485826 1.2396711 -0.34014022 90
nan nan nan nan
-7.1454477 1.4037933 -0.37248385 73
-7.2134275 1.4409173 -0.37635672 72
nan nan nan nan
-6.441586 1.3277824 -0.33553466 94
-6.3475199 1.3288939 -0.33071977 93
-6.329648 1.3458785 -0.32998708 99
-6.3658772 1.3769628 -0.33218518 99
-6.4180517 1.4095607 -0.33522066 99
nan nan nan nan
nan nan nan nan
-7.0708351 1.6290754 -0.37112314 77
-7.0404158 1.6452976 -0.36976239 81
-7.0119081 1.6618131 -0.36850634 77
-6.9891872 1.6795809 -0.36756429 87
-6.9700055 1.6993991 -0.36683157 85
-6.9568825 1.7193483 -0.36641288 78
-6.956646 1.7450972 -0.36672691 74
-6.9724064 1.7724171 -0.36787829 70
-6.9957938 1.8018696 -0.36944836 70
-7.015203 1.8304654 -0.37080911 70
-7.0264587 1.8583652 -0.37175116 68
-7.041791 1.8861762 -0.37290254 70
-7.0640531 1.918681 -0.37447262 70
-7.086853 1.9488902 -0.37604269 75
-7.1037664 1.9776385 -0.37729877 78
-7.1167278 2.0054162 -0.37834549 82
nan nan nan nan
nan nan nan nan
-5.4569211 1.5914071 -0.28874633 41
-5.421278 1.5993868 -0.28707156 42
-5.4066682 1.6135192 -0.2865482 39
-5.4111218 1.6334171 -0.28707156 38
-5.45719 1.6672984 -0.28989771 93
nan nan nan nan
nan nan nan nan
-7.015552 2.2249949 -0.37656605 76
-7.0594358 2.2648664 -0.37939221 74
-7.1490889 2.3187282 -0.38473049 67
-7.1607313 2.3474512 -0.38577721 72
-7.1893101 2.3819706 -0.38776597 70
-7.3550096 2.4659331 -0.39739579 70
-7.428493 2.5168042 -0.40189669 77
nan nan nan nan
nan nan nan nan
-5.2472363 1.8276353 -0.2820473 99
-5.1774974 1.8213305 -0.27848846 99
-5.1372819 1.8272158 -0.27660435 99
-5.1164999 1.8378867 -0.275767 99
-5.0897546 1.8472683 -0.27461562 99
-5.0689454 1.8576916 -0.27377823 99
-5.0736504 1.8795823 -0.27440625 99
-5.1050806 1.9096506 -0.27649969 99
nan nan nan nan
nan nan nan nan
-7.5710588 2.9262507 -0.41623673 85
-7.5804167 2.9573288 -0.41728348 86
-7.5960355 2.9940906 -0.41874886 79
-7.6069832 3.0261142 -0.41990021 76
-7.6154208 3.0588152 -0.42094696 75
-7.6279635 3.091783 -0.42220303 70
-7.6385255 3.1241002 -0.42335439 70
-7.6194515 3.1442497 -0.42283106 67
-7.5752816 3.1569116 -0.42094696 73
-7.534059 3.1674571 -0.41916752 78
-7.589632 3.22068 -0.42293572 76
-7.6803522 3.2879915 -0.42869267 69
-7.6919637 3.321661 -0.42994875 58
-7.6869774 3.3482163 -0.43026277 64
-7.6642871 3.3701761 -0.42963475 70
-7.6299515 3.3836539 -0.42827401 67
-7.5549526 3.3802264 -0.42461047 62
-7.5442967 3.4039428 -0.42461047 63
-7.6697536 3.4900079 -0.4324609 61
-7.7566648 3.5593078 -0.43811315 64
-7.7677269 3.5973291 -0.4394739 60
-7.7816935 3.6336088 -0.44093931 59
-7.7425289 3.6465626 -0.43936923 72
-7.6337233 3.6243677 -0.43371695 77
-7.559855 3.621501 -0.43015808 86
-7.5717931 3.6565831 -0.43151882 63
nan nan nan nan
nan nan nan nan
-4.3574896 2.1462574 -0.24541214 77
-4.3507257 2.1599355 -0.24541214 75
-4.3378139 2.1724019 -0.24509811 71
-4.3202929 2.1805744 -0.24447009 57
-4.3116455 2.193222 -0.24436542 40
-4.3224664 2.2159462 -0.24541214 45
-4.3257165 2.2358165 -0.24604017 32
nan nan nan nan
-7.4738789 3.943464 -0.43371695 67
-7.4156609 3.942435 -0.43099549 59
-7.4067559 3.9676063 -0.43120483 66
-7.3556399 3.9698899 -0.42890206 75
-7.300385 3.9712486 -0.4263899 75
-7.389317 4.0500946 -0.4324609 72
-7.448452 4.1166196 -0.4368571 73
-7.4267693 4.1351223 -0.43633372 84
-7.5225949 4.2215738 -0.44292808 86
-7.6829219 4.3438973 -0.45339525 71
-7.7714949 4.4265738 -0.45957091 66
-7.7350583 4.4379945 -0.45821017 67
-7.6901698 4.4478974 -0.45643076 71
-7.6727099 4.4700179 -0.4562214 73
-7.6956854 4.5177698 -0.4585242 63
-7.7930474 4.6082625 -0.46532783 62
-7.8744946 4.6901755 -0.4711895 75
-7.9041891 4.7417083 -0.47391096 74
-7.908071 4.7817159 -0.47516704 73
-7.9100432 4.8169661 -0.47621372 76
-7.9076285 4.8515553 -0.47705114 71
-7.9093137 4.88691 -0.47809783 72
-7.9023657 4.9208465 -0.47872588 73
-7.8817973 4.9424539 -0.47841182 76
nan nan nan nan
-7.3490624 4.6713872 -0.44721961 82
nan nan nan nan
-7.7075729 4.9707732 -0.4715035 67
-7.7403407 5.0304132 -0.47464368 66
-7.7228298 5.0536084 -0.47453901 66
-7.7235689 5.08887 -0.4755857 60
-7.7557359 5.1452403 -0.47862121 65
-7.7883763 5.2043285 -0.48176134 68
-7.7951512 5.2444329 -0.48322675 62
-7.7668948 5.2648635 -0.48259875 68
-7.6481905 5.2192092 -0.47610906 71
-7.5364261 5.1773968 -0.47003809 73
-7.5201249 5.2010455 -0.47003809 73
-7.6091928 5.3003988 -0.47684178 70
-7.6659713 5.376049 -0.481552 72
-7.6699615 5.4189601 -0.48301741 64
-7.6983981 5.475544 -0.4859482 62
-7.6957512 5.5102 -0.48689029 63
-7.6913443 5.5437198 -0.48772764 70
-7.6793728 5.5739017 -0.48814636 68
-7.660212 5.5968199 -0.48804164 69
-7.6486597 5.6294608 -0.48856503 68
-7.6453567 5.6641946 -0.48950711 65
-7.6361203 5.6967039 -0.49013513 66
-7.6293464 5.7290854 -0.49086782 62
-7.6160836 5.7566466 -0.49118182 63
-7.5931988 5.7769089 -0.49086782 59
-7.5603271 5.7936301 -0.49003041 56
-7.5215645 5.8014507 -0.48866969 54
-7.4881129 5.8153052 -0.48772764 57
-7.4713764 5.8400345 -0.48783231 60
-7.4498591 5.8609991 -0.48762298 61
-7.432972 5.8856211 -0.48772764 65
-7.4295292 5.9252658 -0.48887905 69
-7.421761 5.9573531 -0.48961177 65
-7.4081664 5.9869661 -0.49003041 67
-7.4032407 6.021584 -0.49097249 61
-7.4135995 6.068913 -0.49296126 55
nan nan nan nan
-4.5072284 3.7292759 -0.29743409 99
-4.5000825 3.7472675 -0.29774809 98
-4.4738975 3.7505722 -0.29680604 99
-4.451438 3.7555563 -0.29607335 99
-4.4320297 3.7630308 -0.29554999 99
-4.4171576 3.7743299 -0.29534066 99
-4.3949013 3.7818766 -0.2947126 99
-4.3769789 3.7904124 -0.29429394 99
-4.3583822 3.7996347 -0.29387525 99
-4.3449264 3.8119867 -0.29377055 99
-4.3314371 3.8242896 -0.29366589 99
-4.3149366 3.8338823 -0.29335189 98
-4.2955937 3.8435726 -0.2929332 99
-4.280539 3.8543639 -0.29272383 99
-4.2662592 3.8671908 -0.29261917 99
-4.2526174 3.8792245 -0.2925145 99
-4.2404103 3.8925648 -0.2925145 99
-4.2266979 3.9045062 -0.29240984 96
-4.2086706 3.9151397 -0.29209581 96
-4.1861796 3.9187496 -0.29136309 99
-4.1688161 3.9284847 -0.29104909 99
-4.1578965 3.9429431 -0.29115379 99
-4.1411705 3.951833 -0.29083976 99
-4.1229939 3.9592681 -0.29042107 99
-4.1034245 3.9680617 -0.29000238 99
-4.0866604 3.976738 -0.28968835 99
-4.0720286 3.9888654 -0.28958368 98
-4.0509734 3.9931943 -0.28895566 99
-4.0355978 4.005899 -0.28885099 98
-4.0229926 4.0185575 -0.28885099 99
-4.0061378 4.0269127 -0.28853697 99
-3.9892712 4.0352015 -0.28822294 99
-3.9730799 4.045548 -0.28801361 96
-3.957572 4.0551395 -0.28780428 90
-3.9434268 4.0661154 -0.28769961 87
-3.9306338 4.0784836 -0.28769961 94
-3.9149966 4.0907316 -0.28759491 99
-3.8993847 4.1001053 -0.28738558 99
-3.8789358 4.1057291 -0.28686222 99
-3.8619339 4.1135106 -0.2865482 99
-3.8475504 4.1269674 -0.2865482 99
-3.8318636 4.1360931 -0.28633887 99
-3.8148077 4.1436892 -0.28602484 99
-3.7977438 4.1512165 -0.28571084 99
-3.7826192 4.1623049 -0.28560618 99
-3.7695251 4.1741672 -0.28560618 99
-3.7550633 4.1844978 -0.28550148 99
-3.7379284 4.1917863 -0.28518745 99
-3.7206354 4.2018094 -0.28497812 99
-3.7034767 4.2089639 -0.28466412 99
-3.6868811 4.218204 -0.28445476 99
-3.6723073 4.2282538 -0.2843501 99
-3.6551085 4.2352176 -0.28403607 99
-3.6379023 4.2421165 -0.28372207 99
-3.6204934 4.2517395 -0.28351274 99
-3.6058345 4.2615623 -0.28340805 99
-3.5916817 4.2734966 -0.28340805 99
-3.5782392 4.2847586 -0.28340805 99
-3.5609503 4.2913547 -0.28309402 99
-3.5461874 4.3009744 -0.28298935 99
-3.5311534 4.3133254 -0.28298935 99
-3.5125663 4.318182 -0.28257069 99
-3.4944801 4.3251309 -0.28225666 99
-3.4808741 4.3360887 -0.28225666 99
-3.4672356 4.3470025 -0.28225666 99
-3.4510934 4.354732 -0.2820473 99
-3.432183 4.362031 -0.28173327 99
-3.4147906 4.3680563 -0.28141928 99
-3.4039428 4.3841043 -0.28173327 99
-3.3950095 4.4011202 -0.282152 99
-3.3799555 4.4101748 -0.2820473 99
-3.3636773 4.4175835 -0.28183797 99
-3.3470387 4.4276996 -0.28173327 99
-3.3331113 4.4381938 -0.28173327 99
-3.3160002 4.4460106 -0.28152397 99
-3.299649 4.4531884 -0.28131461 99
-3.2868214 4.4651451 -0.28141928 99
-3.2739515 4.4770651 -0.28152397 99
-3.2501318 4.4771218 -0.28079125 99
-3.2314029 4.4808116 -0.28037256 99
-3.2199953 4.4963889 -0.28068656 99
-3.2070062 4.5081139 -0.28079125 99
-3.1905334 4.5148969 -0.28058189 99
-3.1751935 4.5232577 -0.28047723 99
-3.1571145 4.5310268 -0.28026789 99
-3.1383414 4.5343375 -0.2798492 99
-3.1232889 4.5447192 -0.2798492 99
-3.1134756 4.5611234 -0.28026789 99
-3.0991297 4.5708833 -0.28026789 99
-3.0847554 4.5805964 -0.28026789 99
-3.064332 4.5846782 -0.2798492 99
-3.0499148 4.5942817 -0.2798492 99
-3.0365598 4.6055117 -0.27995387 99
-3.0220752 4.6150293 -0.27995387 99
-3.0067556 4.6250253 -0.27995387 99
-2.986825 4.626039 -0.27943051 99
-2.9717305 4.6381221 -0.27953517 99
-2.9560781 4.6457472 -0.27943051 99
-2.9395964 4.6538305 -0.27932584 99
-2.9249625 4.6630425 -0.27932584 99
-2.9092479 4.6705098 -0.27922118 99
-2.8976941 4.6847334 -0.27953517 99
-2.8802843 4.6931143 -0.27943051 99
-2.8655272 4.7021389 -0.27943051 99
-2.8517692 4.7128305 -0.27953517 99
-2.8338816 4.7166195 -0.27922118 99
-2.8151767 4.7208323 -0.27890715 99
-2.8023527 4.7330995 -0.27911651 99
-2.78883 4.7480297 -0.27943051 99
-2.7738986 4.7567687 -0.27943051 99
-2.756954 4.7619944 -0.27922118 99
-2.7419786 4.7706332 -0.27922118 99
-2.7271271 4.7814374 -0.27932584 99
-2.7140481 4.7934637 -0.27953517 99
-2.6982696 4.8046551 -0.27963984 99
-2.6831629 4.813108 -0.27963984 99
-2.6689904 4.8232641 -0.27974454 99
-2.6500056 4.8246074 -0.27932584 99
-2.6301949 4.8263402 -0.27890715 99
-2.6159616 4.8363404 -0.27901182 99
-2.6007555 4.8445339 -0.27901182 99
-2.5845921 4.850914 -0.27890715 99
-2.5676422 4.8599072 -0.27890715 99
-2.5523624 4.8679495 -0.27890715 99
-2.5371215 4.878161 -0.27901182 99
-2.519964 4.8825517 -0.27880248 99
-2.5046136 4.8904443 -0.27880248 99
-2.4901342 4.9000726 -0.27890715 99
-2.4730153 4.9087353 -0.27890715 99
-2.457583 4.9164791 -0.27890715 99
-2.4447656 4.9295545 -0.27922118 99
-2.4318926 4.9425964 -0.27953517 99
-2.4137495 4.9470377 -0.27932584 99
-2.3981969 4.9545956 -0.27932584 99
-2.3826003 4.9665456 -0.27953517 99
-2.3669865 4.9740057 -0.27953517 99
-2.3521929 4.9832273 -0.27963984 96
-2.3356869 4.9887795 -0.27953517 99
-2.3174641 4.9928679 -0.27932584 99
-2.3025939 5.0019417 -0.27943051 99
-2.2875867 5.0154099 -0.27974454 99
-2.2750845 5.0298624 -0.28016323 99
-2.2608907 5.0406361 -0.28037256 99
-2.2426312 5.0422301 -0.28005856 99
-2.2258968 5.0496402 -0.28005856 99
-2.2131944 5.06394 -0.28047723 99
-2.1955032 5.0716352 -0.28047723 99
-2.1795602 5.0785074 -0.28047723 99
-2.1674681 5.0945334 -0.28100058 99
-2.1529915 5.1050038 -0.28120995 99
-2.1360521 5.1121149 -0.28120995 99
-2.1214941 5.1224971 -0.28141928 99
-2.1068947 5.1328373 -0.28162861 99
-2.0892665 5.1357255 -0.28141928 99
-2.072067 5.1448426 -0.28152397 99
-2.0573614 5.1550422 -0.28173327 99
-2.0409811 5.1636972 -0.28183797 99
-2.0269136 5.1756706 -0.282152 99
-2.0106449 5.1820126 -0.282152 99
-1.9957728 5.1920376 -0.28236133 99
-1.9776381 5.1989722 -0.28236133 99
-1.9612938 5.2051597 -0.28236133 99
-1.9426414 5.2078872 -0.282152 99
-1.9269568 5.2158403 -0.28225666 99
-1.9139555 5.2312593 -0.28277999 99
-1.9002056 5.2447677 -0.28319871 99
-1.8852185 5.2607822 -0.28372207 99
-1.8706652 5.2723336 -0.28403607 99
-1.855401 5.2819586 -0.28424543 99
-1.8394479 5.28965 -0.2843501 99
-1.8225402 5.2976108 -0.28445476 99
-1.8052502 5.3014183 -0.2843501 99
-1.7867349 5.3076873 -0.2843501 82
-1.7725466 5.3208632 -0.28476879 87
-1.7589138 5.3359013 -0.28529215 92
-1.7433673 5.3452029 -0.28550148 96
-1.7274487 5.3566647 -0.28581551 88
-1.7094129 5.3582549 -0.28560618 80
-1.6919756 5.3616924 -0.28550148 78
-1.6751239 5.3669806 -0.28550148 81
-1.6569595 5.3747072 -0.28560618 86
-1.6429433 5.3894482 -0.2861295 82
-1.6250635 5.3948665 -0.2861295 76
-1.6097968 5.405694 -0.28644353 76
-1.5950323 5.4183974 -0.28686222 79
-1.5774523 5.4214611 -0.28675756 79
-1.5596051 5.430778 -0.28696689 78
-1.5441514 5.441421 -0.28728089 78
-1.5270501 5.4462452 -0.28728089 76
-1.5120353 5.4587231 -0.28769961 73
-1.4970413 5.4752784 -0.28832763 69
-1.4808611 5.4838142 -0.28853697 71
-1.4612044 5.4870181 -0.2884323 75
-1.4444584 5.493515 -0.28853697 83
-1.4286779 5.5038309 -0.28885099 91
-1.4138215 5.5179753 -0.28937435 99
-1.3998559 5.5400763 -0.29031637 99
-1.3848259 5.5541453 -0.29083976 99
-1.3692513 5.5662332 -0.29125845 99
-1.3512895 5.5685654 -0.29115379 99
-1.3327613 5.577136 -0.29136309 99
-1.3161367 5.5851865 -0.29157245 99
-1.2990245 5.5912423 -0.29167712 99
-1.28277 5.60114 -0.29199114 99
-1.2637578 5.6034131 -0.29188648 99
-1.245294 5.6034536 -0.29167712 99
-1.2257279 5.6077662 -0.29167712 99
-1.2089293 5.6154976 -0.29188648 99
-1.192504 5.625134 -0.29220051 99
-1.1776339 5.6425486 -0.2929332 99
-1.1616781 5.6601276 -0.29366589 99
-1.1438863 5.6637497 -0.29366589 99
-1.1260886 5.667315 -0.29366589 99
-1.1094077 5.6767101 -0.29397991 99
-1.0914294 5.690362 -0.29450327 99
-1.0768149 5.7114391 -0.29544532 99
-1.0578704 5.7149787 -0.29544532 99
-1.0413131 5.7261386 -0.29586399 99
-1.0257256 5.7431536 -0.29659671 99
-1.0093685 5.7561898 -0.29712006 99
-0.990592 5.7675567 -0.29753876 99
-0.97344339 5.7765517 -0.29785275 99
-0.95688266 5.7894406 -0.29837614 99
-0.93931586 5.7963629 -0.29858547 99
-0.92069942 5.8033938 -0.29879484 99
-0.9042623 5.8181057 -0.29942286 99
-0.88774186 5.8327708 -0.30005088 94
-0.87056351 5.8434367 -0.30046958 85
-0.85071993 5.8503952 -0.30067891 80
-0.8331598 5.858974 -0.30099294 82
-0.81533021 5.87358 -0.30162096 83
-0.79818189 5.886013 -0.30214432 82
-0.77968478 5.8884921 -0.30214432 82
-0.76168072 5.894875 -0.30235365 82
-0.74206567 5.9054284 -0.30277237 78
-0.72516131 5.9216137 -0.30350506 79
-0.70770329 5.9337821 -0.30402842 82
-0.68972945 5.9419303 -0.30434242 82
-0.67067009 5.9501419 -0.30465645 81
-0.653238 5.9641356 -0.30528447 79
-0.63551754 5.9760933 -0.30580783 74
-0.61713719 5.9820347 -0.30601719 74
-0.59739995 5.9960814 -0.30664521 84
-0.57929748 6.0058827 -0.30706391 99
-0.55937636 6.0077715 -0.30706391 99
-0.54101676 6.0154686 -0.30737793 99
-0.5224486 6.0211191 -0.30758727 99
-0.50432873 6.0326848 -0.30811062 99
-0.48387614 6.0423741 -0.30852932 99
-0.46518481 6.0478487 -0.30873865 99
-0.44744399 6.0672112 -0.3096807 99
-0.42944652 6.0845294 -0.31051809 99
-0.41003123 6.0978785 -0.31114611 99
-0.39123601 6.1051178 -0.31146014 87
-0.37228474 6.1103048 -0.31166947 85
-0.35373518 6.1234102 -0.31229749 95
-0.33296803 6.1365757 -0.31292552 87
-0.31416169 6.1475663 -0.31344891 96
-0.2952036 6.1565046 -0.3138676 97
-0.27627215 6.1673784 -0.31439093 98
-0.25612399 6.1762443 -0.31480962 99
-0.23720567 6.1909909 -0.31554234 99
-0.2159743 6.2037582 -0.31617033 99
-0.19647883 6.2044063 -0.31617033 99
-0.17718813 6.2129798 -0.31658906 92
-0.15815291 6.2354703 -0.31774044 89
-0.13784871 6.2559295 -0.31878716 91
-0.1182577 6.2603259 -0.31899652 97
-0.098659225 6.2666578 -0.31931052 94
-0.079157427 6.2869091 -0.32035723 98
-0.057304882 6.3031244 -0.32119462 98
-0.037527114 6.3132601 -0.32171798 96
-0.017691329 6.3193378 -0.32203197 94
0.0022042338 6.3313456 -0.32266 99
0.023299079 6.345284 -0.32339272 99
0.043252245 6.347177 -0.32349741 97
0.063270517 6.3530011 -0.32381141 97
0.083492659 6.3687463 -0.3246488 94
0.10607952 6.3863878 -0.32559085 93
0.12660432 6.4059911 -0.32663757 98
0.14709343 6.4195375 -0.32737026 98
0.16755182 6.4290261 -0.32789361 96
0.18926311 6.4404116 -0.32852164 76
0.20992275 6.4517612 -0.32914966 70
0.23252243 6.4529848 -0.32925433 78
0.25397825 6.4801588 -0.33071977 81
0.27560705 6.5072618 -0.33218518 78
0.29653674 6.5163388 -0.33270854 72
0.31876579 6.5272865 -0.33333656 73
0.33949229 6.5302415 -0.33354589 79
0.3603538 6.5351243 -0.33385992 79
0.38100404 6.5359535 -0.33396459 77
0.40511411 6.5545139 -0.3350113 75
0.42746839 6.579113 -0.33637205 78
0.4492707 6.5936756 -0.33720943 81
0.47102353 6.606174 -0.33794212 78
0.49339142 6.6105494 -0.33825615 83
0.51544821 6.6248927 -0.33909351 90
0.53760004 6.6391625 -0.33993089 83
0.55984348 6.6533585 -0.34076828 71
0.58433104 6.6652861 -0.34150097 52
0.60620111 6.6733608 -0.34202433 57
0.63026118 6.6911922 -0.34307104 62
0.65347505 6.7110391 -0.34422243 59
0.67558378 6.7188859 -0.34474578 53
0.6973303 6.7226877 -0.34505981 52
0.72254133 6.736095 -0.3458972 54
0.74618119 6.755621 -0.34704858 66
0.77018249 6.7770491 -0.34830466 80
0.79384679 6.794426 -0.34935138 86
0.81686097 6.7957211 -0.34956071 88
0.83946168 6.8030281 -0.35008407 84
0.86365438 6.822145 -0.35123545 88
0.88797867 6.8411765 -0.35238686 80
0.9142822 6.8558455 -0.35332888 67
0.93802458 6.8687639 -0.35416627 60
0.96129531 6.877646 -0.35479432 57
0.98433936 6.8844738 -0.35531765 51
1.0086417 6.8910484 -0.35584104 49
1.0339012 6.9115376 -0.35709709 53
1.0589918 6.9299641 -0.35824847 56
1.083584 6.9443541 -0.35919052 63
1.1107026 6.958272 -0.36013258 63
1.1348441 6.9685407 -0.36086527 67
1.1613959 6.9925113 -0.3623307 81
1.1877702 7.0144148 -0.36369142 89
1.2155184 7.0360103 -0.36505216 90
1.2407827 7.04985 -0.36599419 86
1.265072 7.0577073 -0.36662224 83
1.2890584 7.0635171 -0.3671456 84
1.3166779 7.0746737 -0.36798295 85
1.3434238 7.094038 -0.36923903 88
1.3691604 7.1074219 -0.37018105 88
1.3949878 7.1207166 -0.37112314 83
1.4221572 7.1336699 -0.37206519 81
1.4497895 7.1545992 -0.3734259 77
1.4755286 7.1656489 -0.37426329 64
1.5009335 7.1746545 -0.37499598 66
1.53187 7.1967039 -0.37646139 72
1.5596002 7.2152672 -0.37771744 75
1.5852976 7.223979 -0.37845016 78
1.6106219 7.2306528 -0.37907818 75
1.6399474 7.2486329 -0.38033426 81
1.6681385 7.2667899 -0.38159034 81
1.6973763 7.2887287 -0.38305572 80
1.7272331 7.3124981 -0.38462579 72
1.7579346 7.3277731 -0.38577721 64
1.7842872 7.3357902 -0.3865099 52
1.8110251 7.3395209 -0.38703325 38
1.8409318 7.3609028 -0.38849866 43
1.87149 7.3841028 -0.39006874 48
1.9017066 7.4052505 -0.39153415 48
1.9326309 7.417882 -0.3925809 56
1.9579871 7.4194918 -0.39299956 69
1.9890995 7.4422264 -0.39456964 64
2.0230091 7.4744706 -0.39666307 63
2.053654 7.4888926 -0.39781448 62
2.0825639 7.5016336 -0.3988612 60
2.1153963 7.5277162 -0.40064061 63
2.1473062 7.5498276 -0.40221071 67
2.1799331 7.5737305 -0.40388542 71
2.2099178 7.5879216 -0.40503684 67
2.2398109 7.5916462 -0.40566486 60
2.2728722 7.615169 -0.4073396 63
2.3095934 7.6500225 -0.40964243 64
2.3442061 7.677084 -0.41152647 63
2.3773797 7.6940556 -0.41288722 62
2.4081481 7.7075009 -0.41403863 59
2.4435339 7.725688 -0.41550401 61
2.4757702 7.742681 -0.41686475 61
2.5093684 7.7633481 -0.41843483 62
2.543746 7.785778 -0.4201096 62
2.5789201 7.8099623 -0.42188901 57
2.6149123 7.8358941 -0.42377311 64
2.6505349 7.8555412 -0.42534316 73
2.6868854 7.8811746 -0.42722729 94
2.7227685 7.9047699 -0.42900673 98
2.7555203 7.9187937 -0.43026277 79
2.7931626 7.9373612 -0.43183285 77
2.8295341 7.9605107 -0.43361226 90
2.8640406 7.9778771 -0.4350777 74
2.8993764 7.9969773 -0.43664777 52
2.9397066 8.0247946 -0.43874121 56
2.9781573 8.0510778 -0.44072998 54
3.0153911 8.0734606 -0.44250935 55
3.0527954 8.0956879 -0.44428882 51
3.0903432 8.1092215 -0.44564953 43
3.1259046 8.1255474 -0.44711494 52
3.1659677 8.1528864 -0.44920838 54
3.2062335 8.1800556 -0.45130181 48
3.2459073 8.2009211 -0.45308125 48
3.2828367 8.2184772 -0.45465133 45
3.3221614 8.2414341 -0.45653543 43
3.363173 8.2679234 -0.45862886 40
3.405755 8.2893524 -0.46051294 49
3.4487 8.3191643 -0.46281573 56
3.4910898 8.3469458 -0.46501383 59
3.5297852 8.3653507 -0.46668857 56
3.5693107 8.3811359 -0.46825868 50
3.6138546 8.4120445 -0.47066611 50
3.6594222 8.4445896 -0.47317827 40
3.698797 8.4623041 -0.47485298 34
3.7431784 8.4908085 -0.4771558 43
3.790225 8.5245848 -0.47977257 53
3.8347509 8.5440693 -0.48165667 45
3.8764691 8.5647001 -0.48354077 48
3.9233637 8.5960407 -0.48605293 42
3.970484 8.6271715 -0.48856503 38
4.0168147 8.6519613 -0.49076313 41
4.0643911 8.6826687 -0.49327525 49
4.1156254 8.7203798 -0.49620607 57
4.1636968 8.7506437 -0.49871823 65
4.2133141 8.775629 -0.50102097 65
4.2618403 8.8054495 -0.50353307 61
4.3097157 8.8332567 -0.5059405 69
4.3586888 8.8626432 -0.50845265 63
4.4156795 8.9035521 -0.51169753 60
4.466948 8.9360352 -0.51441896 51
4.5103383 8.9522476 -0.5161984 50
4.5529709 8.9664974 -0.51787317 47
4.6125798 9.0055981 -0.52111799 51
4.6739578 9.0548868 -0.52488613 45
4.7199655 9.0737877 -0.52687496 35
4.7726493 9.1048594 -0.52959639 40
4.8356037 9.1507196 -0.53325993 45
4.8850565 9.1742268 -0.53556269 38
4.9223819 9.1746578 -0.53650475 32
4.9778719 9.2082901 -0.53943557 37
5.0531611 9.2696848 -0.54414582 39
5.1140995 9.3114729 -0.54759997 42
5.1705012 9.3442364 -0.55053079 39
5.2252073 9.3732519 -0.55325222 43
5.2709856 9.3819656 -0.55482239 39
5.3152385 9.3914042 -0.55639243 38
5.3516626 9.3867922 -0.55712515 42
5.3990884 9.4010754 -0.55900925 40
5.480783 9.4738617 -0.56445217 35
5.5488544 9.5220985 -0.56842965 32
5.6165628 9.5611582 -0.57198852 32
5.6924882 9.6207304 -0.57669878 33
5.7647357 9.6730652 -0.58099031 33
5.8280873 9.7096453 -0.5843398 33
5.8903208 9.7397699 -0.58737528 32
5.9584031 9.7825565 -0.59114349 33
6.0351963 9.8386126 -0.59574908 33
6.1123953 9.8942862 -0.60035461 34
6.1860647 9.9355536 -0.60422748 32
6.251298 9.9701567 -0.60757697 33
6.3146667 10.001077 -0.61071718 33
6.3772163 10.030013 -0.6137526 33
6.4482498 10.067606 -0.61741614 32
6.5200062 10.109333 -0.62128901 32
6.5910025 10.149032 -0.62505722 33
6.6655941 10.193396 -0.62913942 33
6.744102 10.235035 -0.63322157 33
6.8149719 10.271981 -0.63688517 33
6.8872509 10.310238 -0.64065331 32
6.9620681 10.351459 -0.64463085 31
7.0428252 10.400569 -0.64913177 30
7.1296029 10.457511 -0.65415603 28
7.2163749 10.509459 -0.65897089 18
7.3005834 10.560586 -0.66368115 10
nan nan nan nan
10.144392 14.465177 -0.91677791 32
10.199444 14.436193 -0.91719657 33
10.243584 14.402454 -0.91709185 33
10.303918 14.391298 -0.91845262 31
nan nan nan nan
8.9101534 12.281487 -0.78604263 99
9.0301275 12.364611 -0.79326499 99
nan nan nan nan
10.369304 14.007714 -0.9042173 44
nan nan nan nan
nan nan nan nan
nan nan nan nan
nan nan nan nan
9.0244341 11.795364 -0.76919043 99
9.0944042 11.809635 -0.77201658 99
9.2671556 11.951269 -0.78342587 98
9.3957539 12.03848 -0.79117155 93
9.3803787 11.941441 -0.78667063 99
9.3458824 11.82114 -0.78059971 99
9.3297558 11.716656 -0.77578479 99
9.32022 11.629688 -0.77191192 99
9.3856039 11.636063 -0.77431935 99
nan nan nan nan
9.0275431 11.046931 -0.73852158 99
9.0380545 10.989244 -0.73653281 99
nan nan nan nan
nan nan nan nan
9.1167974 10.874533 -0.73454404 99
9.1173697 10.8062 -0.73182261 99
9.1148758 10.727183 -0.72857773 99
9.1459293 10.695465 -0.7283684 99
nan nan nan nan
nan nan nan nan
9.1903219 10.541028 -0.72376281 99
nan nan nan nan
9.48944 10.74622 -0.74218512 99
9.5470705 10.743195 -0.74406922 99
9.5965223 10.723179 -0.74501121 99
9.6703234 10.737443 -0.74815136 99
9.6905718 10.692232 -0.74710464 99
9.569088 10.49226 -0.73506737 99
9.4306583 10.272407 -0.72166938 99
9.4954672 10.277885 -0.72418153 99
9.7728901 10.510932 -0.74302244 99
9.9643993 10.649124 -0.75516444 99
10.063624 10.687471 -0.76018864 99
10.121913 10.681865 -0.76207274 71
nan nan nan nan
nan nan nan nan
9.8144245 10.157869 -0.73108989 41
9.8211861 10.10125 -0.72920579 16
9.9567642 10.172673 -0.7368468 35
10.102365 10.256435 -0.74532521 33
10.076804 10.166574 -0.74103367 36
10.083271 10.109447 -0.73914957 29
10.194333 10.156543 -0.74501121 10
nan nan nan nan
15.746848 15.466015 -1.1475794 10
15.821108 15.441556 -1.1494635 10
nan nan nan nan
20.957041 20.189522 -1.51592 22
21.130733 20.222017 -1.5236658 21
21.336084 20.290321 -1.5339235 21
21.587114 20.400015 -1.5474262 23
21.898766 20.564354 -1.5652205 41
22.252571 20.765062 -1.5859455 35
22.515528 20.87825 -1.6000762 66
22.61474 20.823858 -1.6019604 98
22.624025 20.701508 -1.5979828 14
22.697817 20.63839 -1.5986108 11
nan nan nan nan
nan nan nan nan
27.164946 24.222694 -1.8982866 20
27.649208 24.498604 -1.9268619 17
28.057486 24.703119 -1.9499944 18
28.216171 24.685814 -1.9556469 18
28.301121 24.603603 -1.9561702 18
28.388336 24.505972 -1.9562747 20
28.451546 24.404966 -1.9553329 20
28.509817 24.299929 -1.9540766 15
28.576866 24.202509 -1.9534485 12
28.646271 24.09861 -1.9527159 14
28.704966 23.994419 -1.9515646 17
28.770992 23.896465 -1.9509367 14
28.830507 23.793261 -1.9498899 14
28.877304 23.679781 -1.9480057 19
28.936062 23.576342 -1.9469591 18
29.015083 23.472677 -1.9467497 18
29.068428 23.365154 -1.9453889 18
29.116701 23.253796 -1.9437143 17
29.178661 23.153519 -1.9429815 16
29.24428 23.048 -1.9422488 15
29.294537 22.938763 -1.9407834 15
29.350681 22.834372 -1.9397367 17
29.408041 22.73107 -1.9387946 17
29.468206 22.630066 -1.9380618 20
29.523277 22.525263 -1.9370152 18
29.592169 22.41485 -1.9363872 15
29.660845 22.32056 -1.9362824 17
29.710026 22.211727 -1.9349216 19
29.768425 22.109955 -1.934189 20
29.835146 22.006388 -1.9337703 20
29.891233 21.903118 -1.932933 20
29.94051 21.795015 -1.931677 21
29.999132 21.693806 -1.9310489 18
30.070381 21.601788 -1.9312581 19
30.12183 21.495628 -1.9302115 21
30.18038 21.378807 -1.9291649 20
30.240852 21.279297 -1.928746 20
30.291174 21.172764 -1.9276994 19
30.354258 21.075226 -1.92749 16
30.418676 20.978619 -1.9273854 19
30.467957 20.871668 -1.9263387 19
30.53039 20.766033 -1.92592 17
30.58885 20.665554 -1.9255013 20
30.648642 20.566027 -1.9251873 16
30.709787 20.467398 -1.9249779 18
30.772703 20.354595 -1.9244546 18
30.818121 20.245771 -1.9233032 20
30.874893 20.144468 -1.9228843 16
30.931316 20.043037 -1.9224657 15
30.977324 19.934973 -1.921419 18
31.034746 19.834339 -1.9211049 16
31.100355 19.731308 -1.9211049 22
31.190929 19.651579 -1.9228843 24
31.281305 19.571491 -1.9246638 23
31.339243 19.471024 -1.9244546 22
31.396849 19.370382 -1.9242451 21
31.450731 19.267488 -1.9238266 23
31.514383 19.155504 -1.9236171 21
31.565853 19.051256 -1.9230938 19
31.613567 18.944792 -1.9223611 18
31.669487 18.843346 -1.9221517 15
31.726805 18.742752 -1.922047 15
31.766571 18.631889 -1.9208957 22
31.810921 18.516397 -1.9198489 15
31.863739 18.41338 -1.9195349 18
31.924906 18.315163 -1.9197444 19
31.982281 18.214785 -1.9197444 15
32.038715 18.0991 -1.9193257 17
32.090187 17.995438 -1.9190117 17
32.150043 17.896479 -1.9192209 13
32.211353 17.79829 -1.9195349 17
32.265358 17.696054 -1.9194303 20
32.320805 17.594578 -1.9194303 17
32.380726 17.488255 -1.9195349 18
32.44783 17.393047 -1.9202676 20
32.498783 17.289158 -1.9200584 18
32.544106 17.182306 -1.9195349 19
32.616272 17.075085 -1.9202676 22
32.682167 16.978964 -1.9210004 21
32.744225 16.880785 -1.9215238 20
32.800659 16.779638 -1.921733 21
32.854988 16.677418 -1.9218377 22
32.912567 16.576817 -1.9221517 21
32.978088 16.472925 -1.9227798 19
33.03146 16.370132 -1.9228843 19
33.082733 16.26627 -1.9228843 17
33.14444 16.167511 -1.9235125 21
nan nan nan nan
14.457521 6.9470663 -0.83147019 10
14.542415 6.9316111 -0.83513373 10
14.576769 6.8918452 -0.83586639 18
14.549492 6.8231874 -0.83304036 20
14.585357 6.7841611 -0.83387774 21
nan nan nan nan
nan nan nan nan
nan nan nan nan
nan nan nan nan
13.180031 5.8800912 -0.74720931 94
13.156404 5.8201299 -0.74480188 97
nan nan nan nan
12.608156 5.4789181 -0.71130687 99
12.460113 5.3684139 -0.70188636 99
12.425453 5.3073587 -0.6989556 99
12.483477 5.2831836 -0.70125836 99
12.562673 5.2701154 -0.70481718 99
12.64191 5.2566009 -0.70837605 99
nan nan nan nan
nan nan nan nan
nan nan nan nan
12.90724 5.1720734 -0.71957594 99
13.086874 5.1961164 -0.72878706 87
nan nan nan nan
12.437781 4.8493266 -0.69047719 99
12.502271 4.8266788 -0.69319862 99
nan nan nan nan
11.044772 4.1871057 -0.60987979 22
11.03729 4.144702 -0.60872841 35
11.06524 4.1155524 -0.60956573 99
11.076241 4.08008 -0.60946107 42
11.022816 4.0168962 -0.60569286 30
10.954545 3.9532423 -0.601192 13
nan nan nan nan
14.389375 5.0839143 -0.79064816 97
nan nan nan nan
nan nan nan nan
8.0688677 2.7737737 -0.43800849 19
nan nan nan nan
nan nan nan nan
nan nan nan nan
9.934206 3.2671707 -0.53891218 99
9.8607998 3.2089224 -0.53430665 99
9.7833214 3.1499512 -0.52949172 86
9.793169 3.1192026 -0.52949172 83
9.8467627 3.1021323 -0.53189915 84
9.8583679 3.0717697 -0.53200382 99
9.8087635 3.0226731 -0.52875906 99
nan nan nan nan
8.3297129 2.5114505 -0.44680095 99
8.4390783 2.5152647 -0.45234856 99
nan nan nan nan
9.9169378 2.8842347 -0.53210855 99
nan nan nan nan
8.1151876 2.3059487 -0.4329842 99
8.0858316 2.2702775 -0.43099549 99
8.0544043 2.2342849 -0.42890206 99
8.0093393 2.1948471 -0.42607588 99
7.9949751 2.163986 -0.42492452 99
8.0445862 2.1486948 -0.42722729 99
nan nan nan nan
7.742672 2.0168731 -0.41016573 40
7.7470345 1.9920481 -0.41006106 40
7.7861881 1.9759603 -0.41184053 99
7.8330703 1.9615738 -0.41403863 99
7.8592715 1.9389546 -0.41508532 99
nan nan nan nan
7.5370545 1.8102143 -0.39708176 99
7.5874329 1.7969948 -0.39948922 99
7.7156482 1.8014345 -0.40608355 67
7.7796955 1.7904688 -0.40922371 99
7.8577046 1.7808043 -0.41309658 99
7.9432244 1.7737513 -0.41738814 99
7.8999648 1.7381867 -0.41477132 99
7.8467946 1.7008216 -0.41163114 54
7.8468218 1.6721855 -0.41131714 55
7.8676815 1.6507673 -0.41215453 50
7.9569807 1.6431953 -0.41665542 34
8.0169363 1.6291797 -0.41958624 32
8.0220156 1.6039873 -0.41958624 21
8.0426998 1.5818224 -0.4204236 10
8.0341682 1.5525235 -0.41969091 31
8.0233002 1.5243355 -0.41885352 31
nan nan nan nan
10.501243 1.9202745 -0.55032146 99
nan nan nan nan
8.1756163 1.446723 -0.42597121 99
8.3125248 1.4406974 -0.4329842 99
8.3958015 1.4277771 -0.43717113 99
nan nan nan nan
5.2279654 0.86333352 -0.26854464 14
5.2839179 0.85531414 -0.27137077 13
5.2549977 0.83382773 -0.26969603 10
5.2103386 0.80923015 -0.2671839 11
5.2010007 0.7911011 -0.26655585 29
5.2133436 0.77618998 -0.26707923 10
nan nan nan nan
nan nan nan nan
5.0145855 0.69919115 -0.25619334 58
4.989274 0.67803168 -0.25472793 65
4.8903484 0.64937693 -0.24938965 95
4.8428206 0.62780499 -0.24677289 99
4.8269253 0.61041045 -0.24583083 71
4.8149366 0.59358901 -0.24509811 66
4.8068571 0.57731265 -0.24457476 78
4.8087449 0.56137031 -0.24457476 99
4.8164415 0.5469116 -0.24488878 99
4.8181362 0.53177625 -0.24488878 99
4.8197832 0.5166356 -0.24488878 89
4.8253574 0.50188828 -0.24509811 74
4.828898 0.48691922 -0.24520278 73
4.8325572 0.47024381 -0.24530748 77
4.8499246 0.45648921 -0.24614483 52
4.9249573 0.44762781 -0.2500177 41
5.0059528 0.43879777 -0.25420457 35
5.0550876 0.4269011 -0.2567167 45
nan nan nan nan
4.9700975 0.38778329 -0.25211114 82
nan nan nan nan
nan nan nan nan
nan nan nan nan
4.8570709 0.31640813 -0.2459355 99
4.9338107 0.30551744 -0.24991304 99
5.0803299 0.29795 -0.25755408 99
nan nan nan nan
4.9145718 0.25708699 -0.24876165 99
nan nan nan nan
nan nan nan nan
nan nan nan nan
5.5082321 0.21625295 -0.27974454 31
nan nan nan nan
nan nan nan nan
6.5362692 0.19102484 -0.33354589 99
6.5329032 0.16811928 -0.33333656 99
nan nan nan nan
5.2178097 0.10570485 -0.26435775 99
5.2101283 0.089206055 -0.26393908 99
5.2463441 0.072280571 -0.26582316 99
5.290484 0.056088276 -0.26812595 99
nan nan nan nan
6.0217285 0.023103673 -0.30643585 99
nan nan nan nan
nan nan nan nan
nan nan nan nan
5.0048418 -0.066356637 -0.07821776 99
5.0265713 -0.084287055 -0.078601725 99
5.050272 -0.10065597 -0.079020582 99
nan nan nan nan
4.8556581 -0.12649584 -0.075634778 99
4.8492165 -0.14239502 -0.075530067 99
nan nan nan nan
nan nan nan nan
nan nan nan nan
4.6173253 -0.19268687 -0.071515962 43
nan nan nan nan
nan nan nan nan
4.3636551 -0.22369719 -0.067117907 97
4.3629308 -0.23740488 -0.067117907 99
4.3422055 -0.2498651 -0.066768855 99
4.3114676 -0.26154348 -0.066245273 79
4.3385544 -0.27700576 -0.066733949 80
nan nan nan nan
5.0026937 -0.35509512 -0.07839229 72
5.0773096 -0.37674534 -0.079718687 73
5.1219416 -0.39643085 -0.080521509 99
nan nan nan nan
nan nan nan nan
nan nan nan nan
nan nan nan nan
nan nan nan nan
nan nan nan nan
4.3380284 -0.43100429 -0.066943377 99
4.3446059 -0.44548455 -0.067082994 99
4.3551102 -0.46045002 -0.06729243 99
4.3913932 -0.47842419 -0.067955628 99
nan nan nan nan
4.6047111 -0.53200346 -0.071760297 74
4.6385489 -0.55249149 -0.072388597 95
4.6506767 -0.56882292 -0.072632931 75
nan nan nan nan
nan nan nan nan
3.3215764 -0.43203312 -0.049316242 99
3.3459494 -0.44606149 -0.049770012 99
nan nan nan nan
nan nan nan nan
nan nan nan nan
3.3874376 -0.49589741 -0.050607733 99
nan nan nan nan
nan nan nan nan
4.7383947 -0.7495715 -0.074587621 90
nan nan nan nan
nan nan nan nan
nan nan nan nan
nan nan nan nan
3.9503424 -0.68588638 -0.060834967 99
3.9304624 -0.69506627 -0.06052082 99
3.9105642 -0.70412791 -0.060206674 89
3.9063678 -0.71603882 -0.060171768 92
3.9158819 -0.7305702 -0.060381196 84
3.8819082 -0.73809141 -0.059822716 99
nan nan nan nan
3.1029797 -0.60593641 -0.046035148 99
nan nan nan nan
nan nan nan nan
nan nan nan nan
nan nan nan nan
nan nan nan nan
3.1553121 -0.67916 -0.047187023 99
3.1024427 -0.67763901 -0.04627949 99
3.0749567 -0.68158752 -0.04582572 99
nan nan nan nan
nan nan nan nan
2.8075273 -0.64932764 -0.041148424 99
2.7938128 -0.65531921 -0.040938988 99
nan nan nan nan
2.9757991 -0.71975642 -0.044289887 99
2.9948506 -0.7344864 -0.044673845 99
nan nan nan nan
nan nan nan nan
2.8833511 -0.73525935 -0.042788967 99
nan nan nan nan
nan nan nan nan
nan nan nan nan
nan nan nan nan
2.9424269 -0.80139494 -0.044080459 97
2.9360464 -0.80954528 -0.044010647 35
nan nan nan nan
3.345583 -0.94884944 -0.051550172 89
nan nan nan nan
3.8264608 -1.1144494 -0.060416102 43
nan nan nan nan
nan nan nan nan
nan nan nan nan
nan nan nan nan
nan nan nan nan
3.2288492 -1.0046966 -0.049874723 27
3.225677 -1.0148354 -0.049874723 25
3.2091603 -1.0206387 -0.049630389 30
nan nan nan nan
nan nan nan nan
4.8466687 -1.6042262 -0.079963028 16
4.7544909 -1.5899069 -0.078357391 17
nan nan nan nan
3.3399458 -1.1349878 -0.052422807 78
3.3061645 -1.1349055 -0.051864319 79
3.319551 -1.1512852 -0.052178472 76
3.3347504 -1.1684327 -0.052527525 96
3.2877975 -1.1633011 -0.051724702 83
3.2559419 -1.1633605 -0.051201127 81
3.2145321 -1.1603413 -0.050503023 83
3.1508863 -1.1481498 -0.049386054 79
3.1154339 -1.1461045 -0.04879266 77
3.1024678 -1.1523454 -0.048618138 75
3.1044357 -1.1642286 -0.048722856 75
nan nan nan nan
2.947598 -1.1266809 -0.045930438 99
nan nan nan nan
2.7806301 -1.0817037 -0.042928591 64
nan nan nan nan
2.9294999 -1.1621321 -0.045860626 72
2.9165771 -1.1675516 -0.045686103 31
2.896049 -1.1703618 -0.04537195 11
2.872046 -1.1710116 -0.044987999 31
2.8609765 -1.1769352 -0.044848375 33
2.8885736 -1.1991621 -0.045441762 41
2.9087017 -1.2184342 -0.045895532 78
2.8791451 -1.2164971 -0.045406856 85
2.8675451 -1.2233515 -0.045267232 28
2.90398 -1.2500161 -0.046035148 28
2.9549069 -1.2833899 -0.047082305 87
3.0038259 -1.3162817 -0.048094563 99
3.0523307 -1.3500257 -0.049106807 99
3.0790329 -1.3736517 -0.049700201 99
3.0365143 -1.3658502 -0.04896719 99
nan nan nan nan
2.8429236 -1.2988945 -0.045406856 99
2.8116703 -1.2950859 -0.044883281 99
nan nan nan nan
2.6911159 -1.26033 -0.042719156 99
2.6637146 -1.2575128 -0.042265385 99
2.6687481 -1.270236 -0.042439915 99
2.6773214 -1.2847588 -0.04268425 99
2.6858299 -1.2993481 -0.042928591 99
2.6850877 -1.3100263 -0.042998396 99
2.6648655 -1.3103997 -0.04268425 69
2.6589501 -1.3178644 -0.042649344 73
2.661927 -1.3298364 -0.042788967 99
2.6523972 -1.3354568 -0.04268425 99
2.6393044 -1.3391956 -0.04250972 67
2.6541233 -1.3585608 -0.042893678 63
2.6640077 -1.374326 -0.043172926 99
2.6349282 -1.3696014 -0.04268425 99
2.6535549 -1.3900969 -0.04313802 99
nan nan nan nan
2.8028057 -1.4928584 -0.04627949 99
2.7717662 -1.4872975 -0.045755908 99
2.7916181 -1.5094767 -0.046244584 99
2.8376019 -1.5463184 -0.047256835 99
2.8432095 -1.5610678 -0.047466263 99
2.7941635 -1.5464873 -0.046593636 99
2.7927713 -1.5572283 -0.046663448 99
2.8712413 -1.613551 -0.048338898 37
2.9077711 -1.6464726 -0.049176626 86
2.9146993 -1.6626112 -0.04942096 95
nan nan nan nan
2.39008 -1.3795794 -0.039019205 99
2.3461502 -1.363662 -0.038216382 99
2.3298295 -1.3638602 -0.037972048 99
nan nan nan nan
nan nan nan nan
nan nan nan nan
2.7074587 -1.6364459 -0.046070054 99
2.7295234 -1.6617613 -0.046628542 99
2.7633402 -1.6946255 -0.047431357 99
2.7732539 -1.7128543 -0.047745511 65
2.7557213 -1.7145696 -0.047501169 99
2.7469459 -1.7210729 -0.047431357 99
2.7533152 -1.7372402 -0.047675692 99
nan nan nan nan
nan nan nan nan
nan nan nan nan
nan nan nan nan
nan nan nan nan
nan nan nan nan
nan nan nan nan
2.2491133 -1.4968342 -0.038006954 56
2.2212639 -1.4881283 -0.037518278 99
2.2149289 -1.4939681 -0.037483372 99
2.206934 -1.4986465 -0.037413567 99
2.1972895 -1.5021477 -0.037308849 99
